# .PCD v0.7 - Point Cloud Data file format
VERSION 0.7
FIELDS x y z
SIZE 4 4 4
TYPE F F F
COUNT 1 1 1
WIDTH 768
HEIGHT 1
VIEWPOINT 0 0 0 1 0 0 0
POINTS 768
DATA ascii
-60.524822 80.996368 -669.22821
-90.037041 -4.1568623 -689.85217
-53.754429 83.980217 -667.06769
-84.176468 -5.0882158 -685.59241
-45.162983 85.167854 -663.91992
-78.880989 -3.8848882 -681.48413
-35.014694 85.607231 -662.76117
-24.911524 85.3396 -663.36328
-14.956067 85.111275 -664.11041
-80.327194 110.6764 -718.50946
-5.1645074 84.850296 -666.4845
-75.946259 112.25415 -714.66553
2.765841 82.821259 -668.69769
10.382728 80.666351 -669.88287
-92.363617 24.872633 -735.13556
-89.39724 28.109213 -732.52789
-51.398808 91.199196 -669.23456
-83.456329 4.6555395 -686.32654
-44.166233 93.412834 -668.14435
-78.263153 5.4841042 -681.97253
-34.952171 94.620468 -667.39948
-25.092457 94.528893 -667.72742
-15.388379 93.4151 -668.29718
-6.9758415 91.986519 -668.99481
-91.659592 35.358696 -735.28754
-89.428642 32.804592 -733.25787
-40.675514 100.66232 -669.79254
-81.698364 13.33342 -687.6059
-77.666862 15.689913 -684.10406
-34.142784 100.90446 -669.51123
-26.466955 100.86861 -669.52875
-71.162834 -71.102455 -704.76605
-68.50753 -71.850464 -704.58832
-93.845909 44.9575 -735.03485
-80.356575 21.436415 -689.67139
-74.812881 24.964102 -685.19586
-74.571358 -64.984108 -705.02307
-69.398048 -69.387741 -705.67285
-80.478294 8.0818119 -639.76874
-94.491432 54.990345 -735.02405
-74.756767 7.2582164 -638.90277
-69.225182 8.2105093 -639.29236
-80.067711 -30.324295 -750.14197
-79.279785 -31.205933 -750.04523
-71.612785 33.028629 -685.22119
-68.434799 36.762089 -685.41455
-81.534119 -53.214443 -705.55774
-78.445328 -56.788998 -704.45959
-80.829536 11.81574 -639.55109
-93.471466 64.980568 -734.98688
-74.50322 14.367699 -638.76917
-68.390923 14.323142 -639.22809
-81.332077 -23.048069 -750.52765
-79.583214 -25.778521 -750.22931
-61.524914 -71.430038 -658.61029
-55.455219 -71.663925 -655.75665
-47.932495 -71.007851 -651.63226
-70.650803 47.645618 -683.9704
-67.323532 44.865105 -685.39642
-84.028976 -45.022854 -704.99902
-79.720062 -49.641369 -700.56055
-91.847107 74.798164 -734.91882
-73.552864 20.634342 -639.61774
-89.566612 77.533562 -735.89117
-82.585602 -14.00105 -751.05798
-79.723923 -17.95219 -750.35107
-62.677826 -64.556313 -657.11725
-56.171432 -65.822655 -652.86914
-48.29644 -68.910164 -650.82196
-81.438705 58.732727 -688.21368
-74.502045 55.785099 -684.86877
-21.636135 -64.324669 -650.69812
-68.781387 51.452324 -685.7915
-14.416678 -61.329124 -651.28027
-7.7845321 -60.579453 -652.48035
-86.652817 -35.066582 -705.07166
-90.888695 83.049789 -734.79797
-88.692039 85.873512 -735.03235
-90.090576 -0.88331908 -750.02979
-85.462189 -4.1576695 -751.70184
-62.374947 -55.225037 -657.08698
-56.513851 -54.468124 -652.58905
-48.770638 -51.831829 -650.4776
-82.679977 65.231583 -687.07959
-77.286644 64.78302 -682.4787
-90.585785 -23.253393 -705.15515
-12.168731 -57.836422 -651.12067
-88.286095 -25.431643 -704.95312
-4.480618 -55.433147 -652.11743
4.6810169 -53.483772 -655.49255
11.525019 -51.753834 -658.92627
-90.330734 90.083076 -734.68469
-86.256645 94.982155 -735.07886
-91.001068 6.9153776 -751.80774
-70.82605 -40.365696 -659.25854
-88.114685 4.8580766 -752.94507
-63.466175 -44.442844 -656.6897
-56.066219 -45.401608 -652.21454
-48.865784 -46.972298 -650.49719
-81.976166 73.688255 -687.58936
-75.9758 75.660072 -683.52197
-69.16864 78.218246 -680.92181
-10.726084 -49.083851 -650.05096
-91.485237 -14.191669 -705.11725
-2.5083117 -47.468948 -650.73883
-89.249413 -16.840553 -704.61621
5.8075762 -45.516792 -652.74054
13.379817 -44.270782 -657.15631
-82.559555 104.4556 -734.95569
-79.247688 108.65548 -735.69696
-91.190407 15.427568 -752.77014
-71.080963 -35.295013 -658.30957
-89.091888 14.747946 -754.34576
-65.449135 -35.109417 -654.5708
-57.878437 -37.521667 -651.30029
-80.73111 81.07383 -689.25812
-35.27161 -30.836168 -650.01196
-73.970642 84.444611 -686.20416
-67.80011 86.194618 -682.15045
-92.962929 -5.0314512 -704.94659
-1.3689821 -39.879967 -650.23346
7.3289614 -35.79454 -651.39673
14.868206 -34.907021 -655.35468
21.191072 -33.231766 -658.99487
-80.477036 110.86077 -734.6731
-78.208099 111.94185 -734.91858
16.435184 89.712395 -680.06104
-91.041084 24.660049 -753.05579
-89.172684 25.252134 -754.24274
-71.64344 -22.964767 -657.95093
-65.023247 -25.147396 -654.62079
-56.348091 -25.905134 -651.40479
-45.887051 -25.711084 -650.44604
-35.533276 -25.485157 -650.59711
-71.880165 93.467323 -688.14758
-65.847115 95.425705 -684.0755
-58.933727 98.043495 -680.93048
-93.431061 4.9902792 -705.04462
-89.54232 8.3315983 -701.17773
8.1766472 -25.483402 -650.90778
15.202409 -25.085459 -653.88312
22.298828 -24.430573 -658.16931
8.3279181 98.647507 -680.77869
12.41189 97.353073 -680.81769
-90.928581 35.231068 -753.17273
-89.092537 34.862133 -753.95496
-71.982605 -14.809468 -657.58081
-65.700165 -15.125018 -653.1897
-58.85046 -15.522865 -650.36023
-70.633209 100.91525 -689.23132
-63.649193 103.84526 -686.65967
-92.159302 14.308009 -705.99103
-56.347275 106.29422 -683.00031
-48.382881 108.89664 -680.96802
-88.467613 16.728371 -702.75647
8.1045399 -14.771875 -650.82532
15.181788 -15.017363 -653.336
-12.452699 109.16086 -680.60193
22.934353 -14.988041 -657.82227
-2.7350855 108.60573 -680.96912
-70.286339 -70.200111 -720.53076
5.3879962 106.05133 -681.96777
-66.532326 -70.84465 -724.19196
10.987927 102.03904 -681.81543
-91.055595 45.286575 -753.22974
-89.237747 44.811752 -754.48126
-72.28376 -4.61062 -655.81653
-66.599174 -6.2356887 -651.80737
-54.575302 -2.8497229 -650.60443
-46.036118 -1.8629791 -650.76587
-38.548264 -0.8906216 -650.49518
-61.054695 111.06812 -689.02551
-90.751556 21.561487 -707.80219
-53.903095 113.16942 -686.65521
-86.294907 25.193098 -704.76349
-45.421856 115.84692 -684.23035
8.0738735 -4.8470807 -650.90302
-35.470421 117.74004 -682.35492
-24.775042 117.66241 -681.95782
15.200593 -5.0476637 -653.72394
-14.586607 116.48831 -682.7381
22.628868 -5.3853788 -658.03394
-4.8948817 115.2449 -684.45111
-72.903343 -63.474987 -724.51538
2.4178362 113.71748 -685.67371
-67.644112 -67.55529 -725.8299
-91.042755 54.972019 -753.18768
-82.539612 6.8605309 -655.22693
-89.285095 55.314903 -754.46448
-74.968384 3.5840871 -655.43164
-62.164871 4.8121228 -650.73303
-54.012371 3.5472023 -650.94519
-44.946831 5.3327479 -652.0119
-38.327816 5.6384535 -651.02777
-90.477959 37.680965 -707.94989
-43.918037 120.3101 -687.53253
-85.673477 34.872013 -704.64136
-79.847496 31.801352 -700.21509
8.1436577 4.7801409 -650.85077
-34.016697 121.17203 -685.19427
-24.812494 121.73421 -685.28723
15.157165 4.9710021 -654.24438
-14.971555 122.19666 -687.13177
21.935818 4.550118 -658.54749
-81.239746 -52.266827 -723.74664
-6.4025707 121.41048 -688.69183
0.46223173 120.32777 -689.53516
-77.264397 -55.885719 -725.47815
-84.207268 15.046 -654.99084
-90.880318 64.628258 -753.29749
-89.057388 65.354836 -754.58392
-52.116669 17.128092 -652.47198
-44.718361 15.028626 -653.92181
-70.79174 -71.352173 -676.47327
-37.589104 16.160324 -651.60522
-29.641987 18.643017 -650.13025
-67.921669 -72.42128 -674.53851
-90.788979 45.683212 -707.9444
-87.78019 44.970413 -704.58301
8.3774004 14.842616 -650.77258
15.305876 14.920137 -654.00568
21.743139 15.330988 -658.54041
-83.459831 -44.950191 -724.96802
-79.450874 -48.799973 -727.41547
-90.567719 73.149048 -752.68549
-82.153572 24.181736 -654.62329
-78.544373 27.966505 -655.10358
-88.395935 75.209869 -753.66895
-62.727158 27.902012 -651.94592
-54.793148 25.251484 -655.09473
-44.611828 24.495422 -657.20831
-71.517456 -64.494003 -675.65637
-35.307705 25.338299 -654.04938
-69.143837 -66.320641 -673.31653
-27.398726 27.454041 -651.49341
-18.692789 28.5009 -650.52386
-92.586548 56.039429 -706.43121
-2.3034902 29.319748 -650.14911
-87.236893 53.656338 -702.97272
7.7934308 26.109833 -650.93799
15.173983 25.025133 -653.85095
-90.337265 -31.32711 -722.51605
22.082802 25.061159 -658.37982
-86.862 -35.114807 -725.05743
-80.202454 30.561102 -654.94293
-90.131454 81.111694 -750.05957
-86.579735 84.798553 -752.85828
-74.976257 34.627762 -654.95227
-65.280182 34.702316 -655.41211
-57.449062 32.087479 -658.21375
-42.002327 31.115761 -659.47339
-72.267128 -54.771351 -675.42822
-33.991283 34.383644 -657.41693
-69.41021 -56.005287 -672.07953
-25.235649 35.29855 -653.90204
-92.509933 64.846764 -705.15753
-15.205281 36.855328 -652.40247
-89.494247 66.997971 -702.00122
-4.7895727 37.358772 -651.89624
5.4762979 35.627884 -652.53119
15.007054 34.936523 -655.83051
-90.900192 -23.832748 -724.45453
21.642803 33.828075 -658.86615
-88.657516 -25.602831 -725.35724
19.990179 -51.612541 -671.19171
22.40493 -50.943825 -671.02899
-71.972702 41.295574 -658.51855
-83.686058 94.700562 -751.86877
-79.618401 99.239281 -751.16687
-67.480698 41.574482 -658.60114
-73.577301 -45.014908 -674.95032
-32.238697 45.154491 -658.97113
-69.674324 -48.479855 -670.92139
-24.831255 44.668442 -658.03308
-91.014984 73.240097 -705.96875
-15.025354 44.432705 -657.3512
-88.547585 76.012917 -704.3219
-4.9145226 44.170174 -656.98193
4.9353309 44.409031 -657.19159
13.684016 43.234501 -658.35901
-91.882141 -14.629399 -724.85962
20.683401 40.750969 -659.64716
-89.494949 -17.742294 -726.08887
23.582592 -46.835983 -670.71869
-81.203568 102.09418 -751.28839
-79.138229 104.72851 -750.92255
-80.358063 -30.285534 -679.47083
-40.245373 50.23378 -659.82971
-74.162422 -34.871223 -675.00909
-33.424252 54.506851 -658.82477
-25.001694 55.025169 -658.06885
-90.416237 81.209023 -708.60339
-15.488213 55.167233 -658.80762
-86.010292 85.100731 -704.85126
-5.8732581 56.106346 -659.34784
2.8591514 52.530567 -659.63324
11.257632 50.240631 -659.88196
-94.397797 -4.9822493 -724.91064
-50.16354 69.079803 -659.89264
-81.167107 -23.279797 -677.53839
-42.913197 68.894775 -659.36755
-77.352745 -25.528708 -674.49652
-33.317871 66.310646 -658.53522
-24.953722 65.090797 -656.99023
-14.98031 65.051392 -656.73938
-82.97892 94.700584 -705.33447
-5.9722962 65.005539 -658.47137
0.55409873 62.218113 -659.68048
-78.967026 97.377342 -701.84064
-96.4786 5.0049667 -725.00519
-50.126801 74.566414 -659.38226
-81.207481 -15.65189 -677.24847
-43.525753 74.59079 -658.97443
-78.290863 -14.765589 -673.77881
-34.887634 74.906586 -657.763
-25.012445 75.048286 -656.7215
-15.243048 74.588966 -657.34222
-81.302727 102.04798 -707.39215
-7.4912415 72.383347 -658.75433
-76.391533 105.74088 -704.4671
-68.871284 109.28217 -700.72833
-95.451393 15.089715 -725.00336
-42.175674 81.154297 -659.63824
-80.616295 -7.1645379 -678.28076
-76.827881 -4.9302936 -674.87604
-34.890568 81.313431 -659.31104
-25.780748 80.924042 -659.24005
-17.895304 80.654495 -659.55261
-72.440346 112.13025 -705.99017
-67.735909 114.07549 -702.62006
-91.836533 23.573153 -725.39008
-88.882637 27.202473 -724.42578
-70.19046 -60.471508 -740.32245
-68.333618 -61.097897 -740.53247
-81.010361 5.8034163 -671.659
-76.86013 4.5957603 -675.92834
-91.085808 36.543518 -725.89404
-88.773201 34.172226 -724.60846
-73.047729 -53.430286 -741.65887
-69.309647 -57.981419 -740.81573
-80.643127 12.144867 -671.31696
-77.079803 15.19046 -675.30371
-70.938187 -71.184807 -695.15656
-68.337326 -72.058266 -694.82422
-94.251923 44.912308 -724.98871
-89.563103 40.761372 -721.82483
-80.681473 -41.732506 -741.38361
-76.639763 -44.873844 -743.05627
-75.467804 25.12645 -675.02948
-73.732475 -64.850685 -695.06024
-100.01826 55.031933 -720.82825
-69.301857 -69.234459 -694.71008
-96.629143 54.974216 -725.09094
-81.558258 -33.835045 -742.88251
-78.57119 -35.682404 -745.1958
-72.786728 34.462002 -674.68188
-69.009926 37.383724 -677.62469
-51.269028 39.267857 -670.70459
-47.772507 38.870052 -670.78479
-80.981438 -52.001888 -696.49768
-77.509216 -55.489803 -694.80908
-94.398598 65.064896 -724.95239
-82.843536 -24.652679 -744.36017
-79.312668 -27.298807 -747.36096
-51.2435 -70.308067 -649.42859
-45.930801 -70.801865 -648.61829
-37.253559 -70.133476 -647.08075
-71.766319 45.29364 -673.92529
-68.635155 45.356823 -676.11945
-54.047009 45.654167 -672.50018
-82.660812 -44.694714 -695.15991
-46.89677 45.798084 -672.11279
-79.179924 -48.213932 -692.6286
-91.862122 74.705482 -725.11188
-89.485847 77.875237 -723.93414
-90.470207 -10.989127 -740.45349
27.51693 47.701279 -670.19678
-84.693794 -14.920026 -744.95752
-79.853073 -19.161013 -748.54065
-52.653992 -63.714146 -648.48077
-45.024395 -64.886055 -646.6073
-35.296841 -64.236984 -645.38123
-71.396774 55.214916 -676.48547
-25.397106 -62.790199 -646.35327
-67.123634 55.584244 -672.46979
-17.590141 -61.57159 -648.74792
-54.309875 54.540401 -672.39661
-85.343666 -35.05455 -694.97479
-46.369041 54.62133 -672.43622
-90.795128 83.390038 -725.44617
-88.689835 85.66272 -724.8396
19.236015 59.44899 -670.5498
23.848557 56.856758 -670.87952
-91.349968 -3.0396516 -742.64972
-87.187752 -5.5809183 -745.76099
-52.572636 -55.903114 -648.55304
-45.001213 -54.979877 -646.29797
-72.521194 65.062912 -677.32843
-34.993496 -55.023731 -644.69623
-66.795784 65.214264 -672.34064
-25.030163 -55.002052 -645.35345
-58.587044 61.425102 -670.21753
-90.402153 -22.229071 -697.20135
-15.37651 -54.559883 -647.54218
-44.897228 60.57972 -670.46417
-87.281265 -25.147913 -694.69373
-6.9256201 -52.306934 -648.97162
0.58590573 -50.993176 -649.83655
-90.144737 90.493034 -725.12506
-86.644203 95.047264 -724.99384
18.081163 67.389267 -670.97699
-92.537666 5.2943139 -744.4848
22.096703 64.981544 -671.58063
-88.878944 2.7409737 -747.9278
-52.450211 -43.860001 -648.88416
-44.94648 -45.029881 -647.06403
-71.870888 73.466286 -678.16754
-34.95575 -45.03054 -645.43878
-66.106461 75.472504 -673.95831
-25.010059 -45.061718 -645.21088
-59.304008 78.136169 -670.65137
-90.99691 -13.743152 -696.76398
-14.963279 -44.96701 -646.01794
-88.312424 -15.453007 -694.11353
-5.2261801 -44.64352 -647.77863
2.1239879 -43.297668 -649.09137
-82.885208 104.63746 -725.03125
-79.315498 108.83399 -724.72198
7.8692551 77.936905 -670.86798
15.663106 75.684494 -672.18524
-93.087822 15.006243 -745.06268
20.717022 74.073143 -673.87347
-89.722427 12.838069 -749.24536
-61.596657 -33.186954 -648.82886
-54.622498 -34.725498 -647.39087
-45.012665 -35.158772 -646.50867
-70.588783 80.967331 -679.22046
-34.988613 -35.037952 -646.18567
-63.716053 84.417702 -676.17944
-25.05476 -34.968712 -644.62933
-91.534035 -4.9065566 -696.39148
-57.120392 86.61673 -672.37646
-14.965148 -35.061314 -644.37701
-48.770279 89.075714 -670.60162
-88.650719 -5.1290851 -692.80957
-5.0052309 -34.968189 -646.08417
3.5414736 -34.618057 -648.30157
10.135807 -31.533253 -649.84857
-1.9197551 88.477806 -670.98846
-80.562042 110.98749 -726.02484
-78.106201 112.10524 -724.99316
5.923203 85.902092 -672.16614
13.917081 84.724976 -674.84009
-92.071449 24.932539 -744.92188
-89.614296 27.351929 -747.46783
-61.344051 -23.58411 -649.15369
-54.396122 -24.987535 -648.04767
-44.999767 -25.034479 -647.52625
-34.659615 -24.968313 -647.51923
-61.815132 93.132439 -678.45898
-25.088779 -25.04534 -644.0365
-91.411995 4.2541447 -697.20642
-55.008728 95.020706 -674.95825
-15.006889 -25.000355 -643.36444
-87.797897 5.5928516 -693.36676
-46.215412 97.094208 -671.62915
-4.9929714 -24.953606 -645.52582
-35.997124 98.503754 -670.76367
4.4197049 -25.023991 -647.92261
10.705394 -23.475561 -649.604
-24.07262 98.346397 -670.79095
-14.210491 97.475235 -671.2666
-4.4652219 95.741463 -672.47833
4.9451594 94.961441 -675.68665
12.436829 93.749054 -677.85211
-91.412994 35.048859 -744.69971
-89.564987 34.738754 -746.6369
-61.752464 -14.450252 -648.98926
-54.870747 -14.944265 -647.6579
-44.965542 -14.987685 -646.35278
-35.01881 -15.056707 -644.94971
-60.557098 100.79079 -679.47766
-24.969757 -15.014507 -643.38965
-90.748436 11.52894 -698.7171
-53.203304 103.26704 -677.83936
-14.988154 -15.045068 -643.68182
-85.034508 15.001373 -695.09595
-45.073807 104.99052 -675.07495
-4.9368134 -14.985889 -646.16016
-79.071587 18.345331 -691.4682
-35.029095 105.27269 -673.03406
4.5869374 -14.988355 -648.16962
-24.925608 105.23067 -673.05969
10.856877 -15.776808 -649.52216
-14.987294 105.0667 -674.69385
-5.218533 104.60915 -676.72601
-70.785004 -70.774063 -713.1778
3.4797263 102.65022 -678.49347
10.142239 100.76334 -679.7312
-68.155861 -71.283592 -714.73309
-92.031738 45.002766 -744.83105
-89.609703 43.999989 -747.93231
-73.42392 -1.0490024 -646.98901
-63.878063 -4.1700315 -648.82892
-54.938713 -5.3654218 -648.37622
-44.737881 -5.4348979 -647.66547
-34.953655 -4.9143467 -646.07812
-25.181643 -4.9859152 -643.49792
-50.429928 110.50362 -679.64398
-15.06345 -5.0552974 -644.02319
-82.545921 24.2957 -696.81146
-43.28167 111.8053 -678.41309
-4.9506426 -4.9994259 -646.47363
-77.520859 25.939856 -692.64008
-34.811657 113.09904 -677.58502
4.4469824 -5.0339241 -648.26825
-25.177111 113.09106 -677.68201
10.6449 -5.1615958 -649.71283
-15.871119 112.07251 -678.48517
-80.178909 -60.281464 -711.51062
-7.7876868 111.00347 -679.36133
-74.291679 -64.719482 -714.93976
-68.792839 -68.789566 -716.19519
-92.098763 54.993542 -744.90088
-82.205849 6.7352357 -645.61377
-89.674423 54.520084 -747.90906
-75.417061 3.4780409 -643.58734
-65.108902 5.3253288 -646.21124
-55.511745 5.7635665 -647.21423
-44.087189 2.8719699 -649.27588
-34.536633 4.9949865 -646.94415
-25.122501 4.992455 -643.65509
-15.087319 4.9600582 -643.75085
-82.282829 35.713055 -698.02222
-5.0100293 4.9295521 -645.92578
-75.590416 35.014225 -693.89624
4.4253654 5.0088048 -648.07153
10.587498 4.2167544 -649.69653
-69.104904 37.360062 -690.86169
-81.772446 -53.333557 -714.72479
-78.389572 -57.269562 -715.42316
-91.746964 64.849007 -744.75769
-82.905861 14.927357 -645.20605
-89.542969 66.31472 -747.69714
-76.285515 16.568096 -641.16797
-64.269035 15.34278 -642.29999
-55.606304 14.708003 -645.95184
-46.586361 11.419685 -649.25494
-70.223946 -70.650177 -669.90442
-33.813904 14.585609 -647.72351
-64.467178 -72.148376 -665.11469
-25.08213 15.048873 -644.9187
-58.973381 -72.757347 -661.18469
-14.995902 14.956613 -644.13916
-83.629562 44.781185 -697.54034
-4.9980097 14.980212 -645.32642
-74.79097 45.056843 -694.09564
4.5582743 15.024706 -647.79114
-68.547722 45.083324 -691.46429
10.930368 15.555973 -649.52069
-84.828201 -45.075394 -715.02985
-91.129112 74.315437 -744.21332
-81.715836 23.087332 -647.04266
-89.141441 75.999886 -746.23865
-75.177849 25.196108 -644.87213
-65.633224 24.160587 -646.24078
-58.231663 21.653961 -648.66742
-70.709328 -63.724571 -668.164
-31.70244 22.090181 -648.97473
-66.943848 -65.198067 -664.51941
-24.46413 24.500635 -647.47778
-91.014397 58.965427 -698.48645
-15.015137 25.137247 -646.01422
-83.827042 56.146301 -696.26898
-5.0130625 25.0798 -646.18463
-76.028099 53.135353 -693.69995
4.3442755 24.791267 -648.14996
-69.403862 51.106041 -690.81976
10.689999 23.32173 -649.59271
-90.341988 -31.490923 -715.85938
-87.458275 -35.126667 -714.93604
-90.652878 82.461143 -743.2132
-73.99369 31.172129 -648.83545
-87.964081 85.306854 -745.20343
-68.958824 30.869854 -649.12646
-70.812599 -54.612305 -668.45459
-22.267971 31.484274 -649.12708
-66.81105 -54.980164 -664.45447
-90.954536 64.652252 -697.8125
-14.469542 32.63789 -648.45166
-87.352455 64.949226 -694.03107
-5.2483706 33.013947 -648.44171
2.7232761 32.184189 -649.09015
-90.872665 -23.944635 -715.46661
-88.748375 -25.390047 -714.73456
8.7030315 -54.119175 -660.82623
15.085021 -52.098194 -663.5708
21.497648 -50.896938 -668.28864
-84.925056 94.982422 -745.00568
-71.602753 -43.973267 -666.7121
-67.688545 -45.897141 -663.21765
-90.478813 71.766464 -698.26971
-85.699799 75.163544 -694.72906
-78.903847 78.96273 -690.55383
-91.615837 -14.474571 -715.30536
-89.428963 -17.021822 -713.76593
17.286749 -46.301231 -662.58759
22.472382 -44.267448 -666.01068
-81.724739 103.50086 -744.55658
-78.753426 107.383 -745.56403
-72.482475 -35.12262 -665.13477
-68.921715 -33.926113 -661.87195
-82.553497 84.176521 -696.1684
-77.931633 86.559967 -692.60712
-93.853355 -5.0760732 -714.99573
18.95789 -37.196247 -660.92603
24.522234 -35.100662 -663.68933
-80.326004 110.64516 -741.9928
-77.407555 111.63411 -744.1424
-74.125031 -24.902376 -665.30383
-68.628281 -28.117992 -661.90479
-80.947784 92.618019 -698.40997
-75.836403 95.312782 -694.57263
-69.210983 98.596382 -691.07043
-95.698929 5.0176377 -714.98102
19.641005 -29.788557 -660.12732
26.560709 -25.275272 -662.69073
30.604668 -23.459583 -665.38074
-75.25457 -15.104993 -664.94104
-73.01059 103.77301 -696.39722
-67.049316 106.73868 -693.08234
-59.465736 108.53275 -690.34363
-94.470253 15.088107 -714.97864
-89.565239 19.030025 -710.75665
27.348288 -15.073679 -662.18585
30.643866 -14.790013 -664.53662
-63.705631 -70.459557 -732.44928
-80.772697 -0.5371173 -665.68878
-74.6036 -4.9717946 -665.08087
-70.832993 110.647 -698.88104
-64.050446 113.22124 -695.82825
-91.500084 22.382088 -715.56464
-56.321663 115.98306 -692.354
-48.535019 118.47772 -690.82458
-88.137428 26.379099 -714.61292
27.116339 -4.8283758 -662.45087
-1.8560181 119.29082 -690.96729
30.878168 -5.6223769 -665.13239
1.2848524 118.16635 -690.59137
-71.558487 -61.840981 -733.026
-66.561623 -65.095833 -734.17279
-82.270821 5.4848199 -664.91101
-75.584991 2.4182758 -663.586
-69.871956 5.3724108 -662.93896
-50.603195 120.18195 -690.94629
-90.736732 37.130993 -715.3009
-47.651009 120.31551 -690.75488
-87.999947 34.560646 -714.81976
-12.010079 124.55626 -691.15576
26.294582 5.1367755 -662.91724
-80.550308 -50.87962 -731.50507
-5.4310012 123.46057 -691.8028
30.672806 5.1537118 -666.06543
-74.757088 -54.868248 -734.93793
0.64863139 120.95177 -691.2149
-69.078888 -58.618576 -737.70203
-82.153419 14.604208 -664.40912
-78.935005 16.675922 -667.30646
-70.989983 -71.570938 -684.72357
-68.421303 -72.570885 -685.12836
-92.480949 46.047703 -715.53247
-89.161057 43.061264 -713.76447
19.998634 10.750047 -660.33606
26.120546 14.939448 -663.07355
-81.747398 -43.756378 -733.87762
30.479183 14.977871 -666.25043
-78.275261 -46.497242 -736.37207
-81.110214 23.078106 -662.79358
-77.775108 25.638163 -665.64789
-51.401505 28.909731 -660.81628
-45.619225 28.461544 -661.11615
-38.644451 29.067327 -660.83618
-72.744507 -64.785667 -685.01581
-69.527771 -69.007263 -685.01697
-95.848541 54.904209 -714.90997
-89.697548 51.197609 -710.05127
26.505945 24.979963 -662.84863
-84.14286 -35.015598 -734.98492
30.555796 24.143684 -666.05127
-79.527824 -38.607067 -739.06787
-75.967628 35.128498 -664.94269
-61.485771 38.204941 -661.54962
-54.363522 35.739265 -664.2348
-80.361382 -50.926815 -689.41138
-44.796066 35.132664 -664.34821
-75.140564 -54.983551 -685.02246
-37.605217 36.520111 -661.58746
-29.197926 39.660805 -660.55542
-94.068275 64.97226 -715.00104
-89.661499 69.501389 -711.01648
18.819996 37.789074 -660.72467
-90.426132 -22.237484 -731.88458
25.780937 35.231228 -663.19305
-86.812225 -25.118721 -735.20514
30.568972 33.59243 -666.45514
-72.762627 43.68206 -665.27167
-65.056953 45.620499 -664.69482
-57.139282 42.478622 -668.31818
-81.255722 -43.423309 -688.41254
-43.100994 44.527073 -667.13849
-76.883934 -45.20853 -684.51477
-35.926533 44.841885 -662.44116
-26.530481 45.791176 -660.52588
-91.419235 74.184143 -715.28046
-14.081988 47.754539 -660.56213
-4.9750509 48.105743 -660.88141
-89.252853 77.062851 -714.27631
5.2335958 48.262249 -660.86914
16.109259 46.599941 -661.69904
-91.274467 -13.725452 -733.29254
24.33415 44.806023 -664.82495
30.261652 40.674652 -667.41675
-88.283287 -15.743684 -736.01172
-70.207573 51.127365 -669.10071
-64.351044 54.225056 -668.76489
-56.598251 57.313866 -668.98566
-82.312164 -34.241665 -687.06824
-42.500179 54.979084 -666.30731
-76.618866 -35.375378 -683.29718
-36.815689 55.674179 -661.74969
-25.432833 56.5289 -660.3446
-13.511751 54.370419 -660.76801
-90.580284 82.581779 -716.23108
-88.130547 85.350327 -714.85187
-4.5756869 54.405972 -661.04614
5.1325154 55.183456 -661.89288
15.023814 55.004337 -664.5332
-93.037689 -4.7733393 -734.7464
22.825651 53.991692 -667.6839
-89.112259 -7.9074106 -738.13196
-62.602211 65.167831 -668.68805
-55.03318 65.203651 -666.17133
-83.598122 -24.931618 -685.16052
-44.862793 64.942696 -664.51416
-78.772102 -28.197451 -681.22797
-36.266781 63.919338 -662.21777
-28.193832 62.090477 -660.40448
-11.489729 61.003616 -660.17523
-85.744598 94.99926 -714.93549
-2.5442359 65.162643 -661.00433
5.0555077 65.112267 -663.71259
14.612679 64.630234 -667.3891
-95.370071 4.9477797 -735.03241
21.127121 62.238163 -669.23145
-61.806393 74.20388 -668.5235
-55.019398 75.130074 -664.72504
-84.199127 -14.937232 -685.14691
-46.407536 75.551025 -661.18774
-79.634918 -12.387247 -681.12195
-36.512196 77.827896 -660.55286
-24.028193 79.032066 -660.70386
-13.269326 78.396706 -661.07971
-82.359665 103.89249 -715.3573
-4.2500377 75.745491 -662.72772
-78.448799 108.02811 -713.82239
4.7678432 74.805244 -666.66394
12.594509 72.695595 -668.88434
-95.011154 15.054773 -735.03143
