# .PCD v0.7 - Point Cloud Data file format
VERSION 0.7
FIELDS x y z
SIZE 4 4 4
TYPE F F F
COUNT 1 1 1
WIDTH 1307
HEIGHT 1
VIEWPOINT 0 0 0 1 0 0 0
POINTS 1307
DATA ascii
-0.017993707 -0.05602929 0.53062028
-0.016948385 -0.056110032 0.5308454
-0.016099198 -0.056480333 0.53201342
-0.015246301 -0.056850933 0.53318226
-0.014197262 -0.056931961 0.53340828
-0.013148231 -0.05701299 0.53363425
-0.012099199 -0.057094011 0.53386027
-0.011423875 -0.05775563 0.53597581
-0.011666111 -0.059869964 0.54281884
-0.010600352 -0.059952278 0.54304832
-0.0095346505 -0.060034581 0.5432781
-0.0090071699 -0.060989507 0.54634684
-0.0082910163 -0.06165427 0.54847127
-0.0073916926 -0.062028456 0.54965001
-0.0063148178 -0.062111627 0.54988199
-0.0052379356 -0.062194817 0.55011415
0.0019952867 -0.074332923 0.5891037
0.0031427061 -0.074421547 0.589351
0.004436167 -0.074216723 0.58864456
0.0055817505 -0.074305214 0.58889133
0.0063004666 -0.075274877 0.5920012
-0.1168476 -0.053095404 0.52825284
-0.11576699 -0.053178865 0.5284856
-0.11432693 -0.052987259 0.52781039
-0.11289058 -0.052795354 0.52713448
-0.11181372 -0.052878521 0.52736652
-0.11073683 -0.052961703 0.52759856
-0.10719566 -0.051115241 0.52146375
-0.10578159 -0.050921619 0.52078295
-0.1040229 -0.050451756 0.51919103
-0.10261812 -0.050257396 0.51850826
-0.10121702 -0.050062776 0.51782471
-0.099819668 -0.049867854 0.51714039
-0.098426044 -0.049672648 0.51645517
-0.097036086 -0.049477134 0.5157693
-0.095987052 -0.049558166 0.51599532
-0.094267398 -0.049085289 0.51439506
-0.093222044 -0.049166031 0.51462024
-0.092176758 -0.049246766 0.51484549
-0.091131419 -0.049327508 0.51507068
-0.08975818 -0.049130727 0.51438105
-0.088714726 -0.04921132 0.51460594
-0.087347068 -0.049014118 0.51391518
-0.086305477 -0.049094569 0.51413965
-0.084943354 -0.048896909 0.51344758
-0.083903611 -0.048977222 0.51367158
-0.082863845 -0.049057521 0.51389545
-0.081824109 -0.049137838 0.51411963
-0.070537597 -0.049101055 0.51359504
-0.06920895 -0.04890082 0.51289594
-0.068176627 -0.048980549 0.51311827
-0.067435049 -0.049340688 0.51426351
-0.066400871 -0.049420562 0.51448631
-0.064505503 -0.048658393 0.51193833
-0.064047329 -0.049299497 0.51400805
-0.062448308 -0.048817292 0.51238173
-0.061419677 -0.048896745 0.51260322
-0.060670696 -0.049257446 0.51374996
-0.059362467 -0.04905564 0.51304638
-0.058333859 -0.049135089 0.51326811
-0.057031188 -0.048932862 0.51256335
-0.056004439 -0.049012166 0.51278454
-0.054977674 -0.049091469 0.51300573
-0.053950917 -0.049170777 0.51322699
-0.05292416 -0.049250077 0.51344812
-0.051897418 -0.049329381 0.51366949
-0.051133588 -0.049691238 0.51481932
-0.050104972 -0.049770679 0.51504093
-0.049335573 -0.05013296 0.51619214
-0.04830512 -0.050212547 0.51641428
-0.047274627 -0.050292142 0.51663607
-0.046244144 -0.050371736 0.5168581
-0.045213688 -0.050451327 0.51708013
-0.044183228 -0.050530914 0.51730222
-0.042904701 -0.050326813 0.5165922
-0.041876093 -0.050406262 0.51681387
-0.040847454 -0.050485723 0.51703537
-0.039576378 -0.050281037 0.51632392
-0.038790241 -0.050644606 0.51747859
-0.037761644 -0.050724059 0.51770025
-0.036969956 -0.051088061 0.51885623
-0.03593947 -0.051167656 0.5190782
-0.034909014 -0.051247243 0.51930022
-0.033878557 -0.051326837 0.51952231
-0.032848086 -0.051406421 0.51974428
-0.031589977 -0.051200755 0.51902997
-0.030561345 -0.051280208 0.51925147
-0.029756689 -0.051645204 0.5204103
-0.028726196 -0.051724799 0.52063227
-0.027915953 -0.052090254 0.52179223
-0.026883636 -0.052169982 0.52201468
-0.026500812 -0.053108092 0.52505344
-0.025677565 -0.053474531 0.52621609
-0.024850605 -0.053841267 0.52737975
-0.023808999 -0.053921726 0.5276041
-0.022767395 -0.054002181 0.52782851
-0.021725751 -0.054082625 0.52805281
-0.020889523 -0.054450069 0.52921849
-0.019846052 -0.054530673 0.52944326
-0.019004244 -0.05489853 0.53061008
-0.017958911 -0.054979265 0.53083515
-0.017111525 -0.055347573 0.53200322
-0.016064338 -0.055428453 0.53222877
-0.01521139 -0.055797182 0.53339797
-0.014354724 -0.056166217 0.53456795
-0.013303841 -0.056247391 0.53479439
-0.012441582 -0.056616839 0.5359655
-0.011388848 -0.056698143 0.5361923
-0.011630636 -0.058799431 0.54303801
-0.010564915 -0.058881737 0.54326767
-0.0094991727 -0.058964055 0.54349726
-0.0089715309 -0.059913374 0.54656726
-0.0079002287 -0.059996128 0.54679805
-0.0071802079 -0.060657453 0.54892397
-0.0061051813 -0.060740478 0.54915559
-0.0050301617 -0.060823515 0.54938722
4.5320656e-05 -0.072421059 0.58694065
0.0011890625 -0.072509401 0.58718693
0.0021831091 -0.072889037 0.58838665
0.0033287012 -0.072977513 0.58863336
0.0046202508 -0.072774433 0.58792615
0.0057639368 -0.072862744 0.58817273
-0.11681162 -0.052009955 0.52847499
-0.115731 -0.052093416 0.5287078
-0.11429102 -0.051903665 0.5280323
-0.11285475 -0.051713623 0.52735603
-0.11177786 -0.051796798 0.52758795
-0.11070099 -0.051879976 0.52781999
-0.10716023 -0.050046574 0.52168238
-0.10574623 -0.049854815 0.52100134
-0.10398769 -0.049388684 0.5194087
-0.10258293 -0.049196191 0.51872551
-0.10118194 -0.049003419 0.51804155
-0.09978462 -0.048810378 0.51735675
-0.098391049 -0.048617035 0.51667124
-0.097001158 -0.048423383 0.51598495
-0.095952146 -0.048504412 0.51621097
-0.094567843 -0.048310358 0.51552343
-0.093187235 -0.048116021 0.51483512
-0.092141941 -0.048196752 0.51506042
-0.09109661 -0.048277486 0.51528561
-0.090051293 -0.048358224 0.51551086
-0.089005962 -0.04843897 0.51573598
-0.087960623 -0.048519708 0.51596117
-0.086915299 -0.048600454 0.51618642
-0.0855496 -0.048404951 0.51549494
-0.084506124 -0.048485555 0.51571971
-0.08346267 -0.048566148 0.51594448
-0.082419202 -0.048646748 0.51616937
-0.07050316 -0.048062216 0.51380771
-0.069174588 -0.047863856 0.51310825
-0.068142258 -0.047943592 0.51333064
-0.067400619 -0.048301861 0.51447618
-0.066655293 -0.048660401 0.51562244
-0.06561926 -0.048740424 0.51584572
-0.064583234 -0.048820451 0.51606899
-0.063263923 -0.048621368 0.51536751
-0.061948299 -0.048422009 0.51466501
-0.060636394 -0.048222337 0.51396191
-0.059605945 -0.048301928 0.51418406
-0.058299612 -0.048101857 0.51347953
-0.057271004 -0.048181303 0.51370126
-0.056242391 -0.048260748 0.51392287
-0.05521379 -0.048340205 0.51414436
-0.053916749 -0.048139401 0.51343811
-0.052889992 -0.048218708 0.5136593
-0.052392658 -0.048859071 0.51573795
-0.051362187 -0.048938673 0.51596004
-0.05033173 -0.049018264 0.51618201
-0.049301289 -0.049097858 0.51640409
-0.048270807 -0.049177449 0.516626
-0.047240324 -0.04925704 0.51684803
-0.046209864 -0.049336631 0.51707011
-0.045431126 -0.049697779 0.51822358
-0.044648655 -0.050059196 0.51937795
-0.043862469 -0.050420888 0.52053308
-0.04282644 -0.050500918 0.5207563
-0.040813241 -0.049452487 0.51724696
-0.036935665 -0.050052959 0.51906818
-0.03590519 -0.050132554 0.51929015
-0.034874722 -0.050212141 0.51951212
-0.033844247 -0.050291736 0.5197342
-0.032813799 -0.050371327 0.51995617
-0.031783313 -0.050450925 0.5201782
-0.030752845 -0.050530519 0.52040011
-0.029722374 -0.05061011 0.52062219
-0.028691886 -0.050689708 0.52084404
-0.029202539 -0.052757137 0.52763468
-0.027940772 -0.052553613 0.52692074
-0.026899138 -0.052634083 0.52714503
-0.025857547 -0.05271453 0.5273695
-0.025028639 -0.053079531 0.52853376
-0.024196068 -0.05344481 0.52969897
-0.022941718 -0.05324072 0.52898341
-0.02189824 -0.053321321 0.52920812
-0.021060098 -0.053687029 0.53037465
-0.02001477 -0.053767771 0.53059983
-0.018969463 -0.053848509 0.53082508
-0.018123871 -0.054214798 0.53199303
-0.017076671 -0.054295681 0.53221852
-0.016225521 -0.05466241 0.53338778
-0.015176488 -0.054743435 0.53361374
-0.01431976 -0.055110604 0.53478414
-0.013459329 -0.055478033 0.53595531
-0.012406553 -0.055559356 0.53618205
-0.011353818 -0.055640664 0.5364089
-0.011595201 -0.05772889 0.5432573
-0.010529443 -0.057811201 0.54348683
-0.0094637033 -0.057893522 0.54371643
-0.0091151716 -0.059124369 0.54773462
-0.0082194451 -0.059494551 0.54891336
-0.0071444283 -0.059577592 0.54914504
-0.0062431316 -0.05994818 0.55032492
-0.0051662396 -0.060031358 0.55055702
-0.0040893494 -0.060114544 0.55078894
-0.00090515008 -0.07089483 0.58597696
8.3401399e-05 -0.071272202 0.58717573
0.0010756684 -0.071649827 0.58837527
0.0022212397 -0.07173828 0.58862221
0.0033668191 -0.071826771 0.58886898
0.0046583079 -0.071625546 0.58816135
0.0058020302 -0.071713895 0.58840781
-0.11569507 -0.051007956 0.52893001
-0.11425513 -0.050820075 0.52825409
-0.11281888 -0.050631899 0.5275774
-0.11174202 -0.05071507 0.52780944
-0.10571091 -0.048788007 0.52121979
-0.10395244 -0.048325602 0.51962626
-0.1025478 -0.048134968 0.51894283
-0.10149129 -0.048216578 0.51917034
-0.10009222 -0.048025541 0.51848561
-0.09869685 -0.047834214 0.51780009
-0.097305186 -0.047642585 0.51711386
-0.095917255 -0.047450665 0.5164268
-0.094868183 -0.04753169 0.51665264
-0.093485795 -0.047339361 0.51596439
-0.092438638 -0.047420237 0.51619005
-0.091391437 -0.047501121 0.5164156
-0.090016492 -0.04730821 0.51572561
-0.089297079 -0.047662884 0.51686686
-0.088249929 -0.047743764 0.51709253
-0.08720272 -0.047824658 0.51731807
-0.086475909 -0.048179902 0.51846075
-0.085426912 -0.048260923 0.51868695
-0.084377818 -0.048341956 0.51891273
-0.082384489 -0.047598578 0.51638401
-0.066909604 -0.047896512 0.51675951
-0.065871716 -0.047976676 0.51698309
-0.064833812 -0.048056837 0.51720673
-0.063512735 -0.047859769 0.51650524
-0.06191396 -0.047385037 0.51487738
-0.060602095 -0.047187235 0.51417375
-0.05957165 -0.047266826 0.51439589
-0.058265392 -0.047068615 0.51369125
-0.057236772 -0.047148064 0.51391268
-0.055936079 -0.046949416 0.51320684
-0.055179559 -0.047306959 0.51435596
-0.053882569 -0.047108024 0.51364917
-0.052855834 -0.04718734 0.51387048
-0.052358378 -0.047823973 0.5159499
-0.051065106 -0.047624759 0.5152424
-0.050297447 -0.047983158 0.51639396
-0.049526047 -0.048341874 0.51754618
-0.048236482 -0.048142344 0.51683784
-0.047206037 -0.048221938 0.51705986
-0.046429094 -0.048581075 0.51821357
-0.045648418 -0.048940483 0.51936781
-0.044864036 -0.049300171 0.52052301
-0.043828003 -0.049380198 0.52074617
-0.042791959 -0.049460217 0.52096951
-0.033809949 -0.049256638 0.5199461
-0.033008888 -0.049617641 0.52110493
-0.031976555 -0.049697377 0.52132726
-0.030718544 -0.049495418 0.520612
-0.029688057 -0.049575005 0.52083397
-0.029167784 -0.051708985 0.5278492
-0.028342536 -0.05207184 0.5290131
-0.027297212 -0.052152578 0.52923822
-0.025822869 -0.05166823 0.52758366
-0.024993936 -0.052031364 0.52874839
-0.024372073 -0.05267762 0.53085458
-0.022906994 -0.052192569 0.52919805
-0.022070611 -0.052556269 0.53036427
-0.021230534 -0.052920274 0.53153145
-0.020183368 -0.053001147 0.53175712
-0.019136185 -0.053082034 0.53198266
-0.018089008 -0.053162917 0.53220838
-0.017239634 -0.053527631 0.53337735
-0.016190579 -0.05360866 0.53360331
-0.015141582 -0.053689674 0.53382951
-0.014284785 -0.054054987 0.53500021
-0.013424275 -0.054420568 0.53617179
-0.012371495 -0.054501876 0.53639847
-0.011505426 -0.054867882 0.53757125
-0.010450858 -0.054949328 0.53779852
-0.010493984 -0.056740664 0.543706
-0.0094282376 -0.056822985 0.54393566
-0.0089002168 -0.057761107 0.54700786
-0.0081836786 -0.058414694 0.54913455
-0.007108659 -0.058497723 0.54936618
-0.0060336208 -0.05858076 0.54959768
-0.005130399 -0.058949623 0.55077845
-0.0040535214 -0.059032809 0.55101043
-0.0018520822 -0.069372661 0.58501357
-0.00071206188 -0.069460697 0.58525914
0.00027471586 -0.069836035 0.58645779
0.0012651744 -0.070211671 0.58765739
0.0024089089 -0.070300013 0.5879038
-0.10567553 -0.047721207 0.52143812
-0.10426538 -0.047532879 0.52075553
-0.10251261 -0.047073767 0.51915991
-0.10145614 -0.047155362 0.5193876
-0.10005712 -0.046966191 0.51870245
-0.09900251 -0.047047656 0.51892978
-0.097270221 -0.046586968 0.51732999
-0.095882311 -0.046396907 0.51664251
-0.094833292 -0.046477936 0.51686841
-0.093450934 -0.04628747 0.51617968
-0.092735209 -0.046639986 0.51732051
-0.091356583 -0.046449233 0.51663101
-0.090309434 -0.046530116 0.51685661
-0.08926224 -0.046611 0.51708215
-0.088215068 -0.046691883 0.51730788
-0.087167881 -0.046772767 0.51753348
-0.08644101 -0.047126152 0.51867658
-0.085391998 -0.047207173 0.51890266
-0.084342912 -0.047288205 0.51912844
-0.068494156 -0.047323387 0.51859725
-0.067163788 -0.04712889 0.51789725
-0.066124029 -0.0472092 0.51812124
-0.064799279 -0.047014285 0.51742017
-0.063478246 -0.046819076 0.51671833
-0.061879601 -0.046348073 0.51508969
-0.060567811 -0.046152133 0.51438576
-0.059259757 -0.04595593 0.51368099
-0.057955436 -0.045759439 0.51297563
-0.056928653 -0.045838758 0.51319683
-0.055901892 -0.045918055 0.5134179
-0.054875184 -0.045997355 0.51363933
-0.053848416 -0.046076663 0.5138604
-0.052821673 -0.046155974 0.51408166
-0.05205949 -0.046512071 0.51523232
-0.0510309 -0.046591528 0.51545399
-0.050263144 -0.046948053 0.51660585
-0.049491707 -0.047304906 0.51775861
-0.048202209 -0.047107246 0.51704991
-0.047427088 -0.047464374 0.51820356
-0.046394724 -0.047544111 0.51842576
-0.045362424 -0.047623839 0.51864833
-0.044829559 -0.048259482 0.52073598
-0.043793511 -0.048339501 0.52095926
-0.042757485 -0.04841952 0.52118254
-0.032974523 -0.048580673 0.52131712
-0.031942192 -0.048660409 0.52153951
-0.028307769 -0.051021814 0.52922815
-0.027262433 -0.05110256 0.52945322
-0.024959197 -0.050983217 0.52896297
-0.024126485 -0.051344771 0.53012902
-0.023081167 -0.051425509 0.5303542
-0.022242861 -0.051787503 0.5315212
-0.02119568 -0.051868383 0.5317468
-0.020148505 -0.051949259 0.53197247
-0.019101335 -0.052030146 0.53219801
-0.018054154 -0.05211103 0.53242373
-0.017006971 -0.052191909 0.53264928
-0.016155694 -0.052554902 0.53381914
-0.01530069 -0.052918207 0.53498989
-0.014249831 -0.05299937 0.53521645
-0.013389244 -0.053363081 0.53638828
-0.012524953 -0.053727075 0.53756094
-0.011470359 -0.053808529 0.53778821
-0.010970001 -0.054738902 0.54085547
-0.010458507 -0.055670131 0.54392517
-0.0097548254 -0.056318983 0.54604977
-0.0090437299 -0.056968376 0.54817599
-0.008147913 -0.057334829 0.54935569
-0.0072483351 -0.057701543 0.55053592
-0.0061714444 -0.057784729 0.55076784
-0.0050945668 -0.0578679 0.55099994
-0.0040176641 -0.057951085 0.55123186
-0.0018141404 -0.068227515 0.58524805
-0.0006740957 -0.068315558 0.58549345
0.00046588987 -0.068403631 0.5857392
0.0016059143 -0.068491675 0.58598477
0.0024469784 -0.069151133 0.58813894
-0.10423011 -0.046467938 0.52097356
-0.10316993 -0.046549823 0.52120197
-0.10176538 -0.04636294 0.52051771
-0.10036455 -0.046175756 0.51983261
-0.099308074 -0.046257358 0.52006006
-0.097574025 -0.045800555 0.51845992
-0.096521273 -0.04588186 0.51868683
-0.094798371 -0.045424186 0.51708418
-0.093749307 -0.045505207 0.51731014
-0.09270031 -0.045586243 0.51753622
-0.091651268 -0.045667268 0.51776224
-0.090602219 -0.04574829 0.5179882
-0.0895532 -0.045829318 0.51821423
-0.088504158 -0.045910344 0.51844019
-0.087455116 -0.045991369 0.51866627
-0.077864788 -0.049685858 0.53060132
-0.076797165 -0.049768317 0.53083122
-0.068459466 -0.046277095 0.51881135
-0.067129172 -0.046084456 0.51811099
-0.066089436 -0.046164781 0.51833504
-0.064764731 -0.045971729 0.5176335
-0.063726842 -0.04605189 0.51785719
-0.061564002 -0.045037456 0.51437563
-0.060533516 -0.045117047 0.51459759
-0.059225537 -0.044922695 0.51389265
-0.057921242 -0.044728074 0.51318663
-0.056894485 -0.044807378 0.51340789
-0.055595823 -0.044612315 0.51270092
-0.05457091 -0.044691477 0.51292175
-0.053546004 -0.044770639 0.51314253
-0.052521124 -0.044849794 0.51336336
-0.051760729 -0.045203906 0.51451397
-0.05099665 -0.045558281 0.51566547
-0.050228845 -0.045912959 0.51681781
-0.049198382 -0.04599255 0.51703984
-0.048167929 -0.04607214 0.5172618
-0.0473927 -0.046427406 0.51841575
-0.046360381 -0.04650715 0.51863819
-0.045579586 -0.046862826 0.51979327
-0.044795085 -0.047218781 0.52094918
-0.043759044 -0.047298808 0.52117234
-0.042723019 -0.047378834 0.52139562
-0.039199557 -0.04971857 0.52906275
-0.038150478 -0.04979961 0.52928865
-0.037101477 -0.049880624 0.52951479
-0.03582133 -0.049684133 0.52880371
-0.034774154 -0.049765017 0.52902925
-0.025349544 -0.050492961 0.53105974
-0.024302352 -0.050573856 0.53128529
-0.023046378 -0.050375488 0.53056914
-0.022208011 -0.050735615 0.53173655
-0.021365961 -0.051096015 0.53290486
-0.020316908 -0.051177055 0.53313088
-0.019267876 -0.051258076 0.5333569
-0.018218854 -0.051339097 0.53358293
-0.017169803 -0.051420134 0.53380889
-0.016120782 -0.051501151 0.53403491
-0.015265703 -0.051862594 0.5352059
-0.014406955 -0.052224286 0.53637791
-0.013544464 -0.052586272 0.53755069
-0.012678254 -0.052948546 0.53872412
-0.011621795 -0.053030144 0.53895164
-0.011119404 -0.053955067 0.54202062
-0.010240208 -0.054318346 0.54319692
-0.0095382882 -0.054963328 0.545322
-0.008828897 -0.055608854 0.54744846
-0.0081121111 -0.056254968 0.54957658
-0.0072124908 -0.05661983 0.55075735
-0.0061356034 -0.056703001 0.55098927
-0.0050587258 -0.056786183 0.55122137
-0.003981824 -0.056869365 0.55145329
-0.0004811924 -0.066887043 0.58477455
0.00065695483 -0.066974938 0.58501977
0.0016438561 -0.067346536 0.58621919
-0.10384679 -0.045136385 0.52027923
-0.10278851 -0.045218118 0.52050745
-0.10173014 -0.045299869 0.52073526
-0.10032937 -0.045114543 0.52004969
-0.099272922 -0.045196142 0.52027738
-0.097877733 -0.04501041 0.5195908
-0.096823141 -0.045091864 0.51981801
-0.095433503 -0.044905692 0.51913017
-0.093714409 -0.044451464 0.51752597
-0.093327999 -0.045068324 0.5195837
-0.092275277 -0.045149639 0.51981056
-0.091222502 -0.045230962 0.52003735
-0.090169758 -0.045312274 0.52026403
-0.089117005 -0.045393575 0.52049094
-0.087420225 -0.044937622 0.51888204
-0.079810806 -0.047286391 0.52644497
-0.07875064 -0.047368277 0.52667344
-0.077529505 -0.048343096 0.52989823
-0.076463744 -0.048425414 0.53012776
-0.067094579 -0.04504003 0.51832485
-0.066054843 -0.04512034 0.51854885
-0.064730205 -0.044929158 0.51784706
-0.063692316 -0.045009322 0.5180707
-0.061529685 -0.044002354 0.51458758
-0.060499247 -0.044081949 0.51480967
-0.058913819 -0.04361739 0.51317656
-0.057887096 -0.043696698 0.51339793
-0.056860339 -0.043776006 0.51361907
-0.055289786 -0.0433103 0.51198292
-0.05426674 -0.043389309 0.51220334
-0.053243689 -0.04346833 0.51242381
-0.052220676 -0.043547347 0.51264423
-0.051726565 -0.044172537 0.51472515
-0.050699793 -0.044251837 0.51494628
-0.049673054 -0.044331141 0.51516759
-0.04916409 -0.044957452 0.51725167
-0.048133623 -0.045037046 0.51747376
-0.047103159 -0.045116633 0.51769572
-0.046072666 -0.045196235 0.51791763
-0.045042224 -0.045275819 0.51813972
-0.044760596 -0.046178091 0.52116221
-0.043724556 -0.046258103 0.52138537
-0.040929075 -0.049409062 0.53185999
-0.040111095 -0.049765732 0.5330236
-0.038819857 -0.049571976 0.53231436
-0.03706656 -0.048826881 0.5297305
-0.036017518 -0.048907906 0.5299564
-0.034739286 -0.048713136 0.5292446
-0.025314705 -0.049441077 0.53127521
-0.024267515 -0.049521964 0.5315007
-0.023220349 -0.049602851 0.53172636
-0.022173166 -0.049683724 0.53195202
-0.02133105 -0.050042275 0.53312063
-0.020281997 -0.0501233 0.53334659
-0.019232968 -0.050204329 0.53357261
-0.018183928 -0.050285354 0.53379858
-0.017134875 -0.050366379 0.53402454
-0.016281635 -0.050725803 0.53519577
-0.015230772 -0.050806966 0.53542227
-0.014371931 -0.051166803 0.53659457
-0.013509383 -0.051526923 0.53776759
-0.013019777 -0.052445259 0.54083478
-0.011959603 -0.052527148 0.54106319
-0.011084059 -0.052888267 0.54223901
-0.010204786 -0.053249687 0.54341567
-0.0096836621 -0.054170448 0.54648972
-0.0089723095 -0.054812387 0.54861742
-0.0080763577 -0.055175111 0.54979777
-0.0071766633 -0.055538092 0.55097884
-0.0060997861 -0.05562127 0.55121088
-0.0050228816 -0.055704452 0.5514428
-0.00044332645 -0.065743759 0.58500868
0.00069484429 -0.065831676 0.58525383
-0.1209944 -0.048870407 0.53753483
-0.11989709 -0.048955161 0.53777111
-0.11771689 -0.048248656 0.53527784
-0.11662518 -0.048332978 0.53551328
-0.11374725 -0.047097102 0.5311951
-0.11266479 -0.047180712 0.5314284
-0.1112288 -0.046999995 0.53075016
-0.11014824 -0.04708346 0.53098303
-0.10381157 -0.044073313 0.5204969
-0.10309934 -0.044419948 0.52163798
-0.10203916 -0.044501834 0.52186638
-0.10097901 -0.044583723 0.52209473
-0.099578314 -0.044400286 0.52140898
-0.098181307 -0.044216532 0.52072227
-0.097124837 -0.044298131 0.52094996
-0.095733427 -0.044113982 0.52026206
-0.094345726 -0.043929528 0.51957345
-0.093624197 -0.044276889 0.52071643
-0.092240229 -0.044092152 0.5200271
-0.091187499 -0.044173468 0.5202539
-0.09013474 -0.044254784 0.52048069
-0.08940582 -0.044602707 0.52162534
-0.088673152 -0.044950932 0.52277076
-0.087616682 -0.045032527 0.52299839
-0.082023583 -0.045172907 0.52321589
-0.080968961 -0.045254365 0.52344304
-0.080835678 -0.046139561 0.52643454
-0.07977552 -0.046221461 0.52666295
-0.079018734 -0.046571534 0.52781373
-0.077956699 -0.046653561 0.52804244
-0.077494033 -0.047272552 0.53011739
-0.075832635 -0.046817619 0.52850014
-0.074770592 -0.046899658 0.52872878
-0.05887967 -0.042586025 0.51338786
-0.057026278 -0.041854274 0.51082432
-0.056005102 -0.041933153 0.51104426
-0.05498391 -0.042012017 0.51126438
-0.053962741 -0.042090893 0.51148432
-0.052673426 -0.041898858 0.51077449
-0.051654078 -0.041977584 0.51099408
-0.051427998 -0.042869963 0.5140056
-0.050403085 -0.042949121 0.51422644
-0.049378201 -0.043028273 0.51444739
-0.04861214 -0.04337908 0.51559997
-0.048099332 -0.044001944 0.51768565
-0.046813741 -0.043809611 0.51697499
-0.045785122 -0.043889064 0.51719654
-0.045007937 -0.044240724 0.51835167
-0.041132383 -0.048622925 0.53301316
-0.04031251 -0.048977897 0.53417754
-0.039019462 -0.048786122 0.53346843
-0.037031628 -0.047773127 0.52994615
-0.035982601 -0.047854163 0.53017217
-0.025492249 -0.048664417 0.53243226
-0.024443232 -0.048745446 0.53265834
-0.023394179 -0.048826464 0.5328843
-0.022345165 -0.048907492 0.53311032
-0.021296108 -0.048988525 0.53333628
-0.020247085 -0.049069557 0.53356236
-0.019198056 -0.049150575 0.53378838
-0.018348467 -0.049507845 0.53495914
-0.017100001 -0.049312629 0.53424042
-0.016246667 -0.049670178 0.53541189
-0.015195783 -0.049751353 0.53563833
-0.014336851 -0.050109323 0.53681087
-0.013474252 -0.050467581 0.53798437
-0.01298451 -0.051380314 0.54105282
-0.011924323 -0.051462207 0.54128116
-0.011048709 -0.051821463 0.5424574
-0.010534821 -0.052736063 0.54553109
-0.0094672125 -0.052818514 0.54576105
-0.0087576099 -0.053456582 0.54788917
-0.0082177026 -0.054373186 0.55096823
-0.0071408087 -0.054456372 0.55120021
-0.0060639321 -0.054539543 0.55143231
-0.0049870391 -0.054622725 0.55166429
-0.12095786 -0.047768168 0.53776044
-0.11913509 -0.047329444 0.5361771
-0.11768057 -0.047152005 0.53550249
-0.11658885 -0.047236327 0.53573769
-0.11406842 -0.046271965 0.5323289
-0.11262876 -0.046093382 0.53165096
-0.11119286 -0.045914534 0.53097248
-0.11011229 -0.045998003 0.53120536
-0.10690739 -0.045376264 0.52893174
-0.10583237 -0.045459293 0.52916336
-0.10200391 -0.043436892 0.52208436
-0.10094374 -0.043518774 0.52231276
-0.099883534 -0.043600664 0.52254128
-0.098823376 -0.043682549 0.52276969
-0.097426474 -0.04350068 0.52208263
-0.096033208 -0.043318518 0.52139473
-0.094643719 -0.043136083 0.52070606
-0.09358912 -0.04321754 0.52093333
-0.092534505 -0.043299001 0.5211606
-0.091479927 -0.043380454 0.52138776
-0.090425313 -0.043461911 0.52161491
-0.089370705 -0.043543365 0.52184218
-0.088637985 -0.043889716 0.52298802
-0.08758153 -0.043971322 0.52321571
-0.086525075 -0.044052918 0.52344322
-0.084726632 -0.044481602 0.52481866
-0.083668314 -0.044563349 0.52504671
-0.082610004 -0.044645093 0.52527481
-0.081242755 -0.044460919 0.52458131
-0.080493368 -0.044808578 0.52573079
-0.079740234 -0.045156501 0.52688098
-0.078680053 -0.045238394 0.52710944
-0.077921353 -0.045586765 0.52826083
-0.077158913 -0.0459354 0.5294131
-0.07579729 -0.045750819 0.52871847
-0.074735261 -0.04583285 0.52894729
-0.056716833 -0.040560007 0.51010573
-0.055697471 -0.040638752 0.51032525
-0.05467815 -0.040717486 0.51054484
-0.053388927 -0.040527299 0.50983465
-0.052371442 -0.040605891 0.51005387
-0.051620182 -0.040953673 0.51120371
-0.050865166 -0.041301746 0.51235431
-0.050106481 -0.041650113 0.51350582
-0.049083445 -0.04172913 0.51372612
-0.048577949 -0.042347711 0.51581097
-0.047808129 -0.042696927 0.51696485
-0.046779495 -0.042776369 0.51718652
-0.045750897 -0.042855825 0.51740813
-0.044722278 -0.042935271 0.51762974
-0.042393908 -0.047751341 0.53393906
-0.041097239 -0.047561709 0.53323048
-0.040277291 -0.04791481 0.53439522
-0.039218947 -0.047996569 0.53462315
-0.037462302 -0.047262952 0.53203762
-0.036409549 -0.047344267 0.53226447
-0.035356797 -0.047425587 0.53249127
-0.025457334 -0.047610663 0.53264797
-0.024408316 -0.047691688 0.53287411
-0.023359269 -0.047772724 0.53310007
-0.022310251 -0.047853742 0.53332609
-0.021261219 -0.047934763 0.53355211
-0.020212179 -0.048015796 0.53377807
-0.019163152 -0.048096824 0.53400409
-0.018313488 -0.048452225 0.5351752
-0.017065069 -0.048258871 0.53445607
-0.016211692 -0.048614569 0.53562802
-0.015354587 -0.048970535 0.53680062
-0.014493761 -0.049326777 0.537974
-0.013819324 -0.049958404 0.54009545
-0.012949211 -0.050315373 0.54127079
-0.011702683 -0.050121892 0.54055136
-0.01082888 -0.050479148 0.54172766
-0.010499282 -0.051663663 0.54575062
-0.0094316928 -0.051746108 0.54598063
-0.008721943 -0.05238045 0.54810941
-0.0083589582 -0.05356754 0.55213964
-0.007280203 -0.053650871 0.55237198
-0.0063748127 -0.054010563 0.55355489
-0.0052942098 -0.054094028 0.55378777
-0.12275149 -0.047100365 0.53956854
-0.12092134 -0.046665918 0.53798616
-0.11909869 -0.046230935 0.53640205
-0.11764426 -0.046055362 0.53572702
-0.11619356 -0.045879528 0.53505123
-0.11403233 -0.045182787 0.53255183
-0.11259274 -0.045006063 0.53187358
-0.1111569 -0.044829074 0.53119457
-0.10972477 -0.044651806 0.5305149
-0.10829635 -0.044474248 0.52983427
-0.10687163 -0.044296399 0.52915293
-0.10579662 -0.044379424 0.52938449
-0.10437744 -0.044201136 0.5287019
-0.10159294 -0.042976741 0.52436
-0.10052906 -0.043058917 0.5245893
-0.099126644 -0.042879358 0.52390307
-0.097727925 -0.042699501 0.52321607
-0.096332908 -0.042519361 0.52252829
-0.094941594 -0.042338915 0.52183968
-0.093885131 -0.04242051 0.52206719
-0.092499413 -0.042239651 0.52137744
-0.091444798 -0.042321112 0.5216046
-0.090390205 -0.042402565 0.52183187
-0.089335606 -0.042484015 0.52205908
-0.088602833 -0.042828504 0.5232054
-0.087546349 -0.042910106 0.52343285
-0.086489901 -0.042991709 0.52366048
-0.086065993 -0.043600257 0.52572858
-0.085005835 -0.043682136 0.52595705
-0.083945632 -0.043764029 0.52618533
-0.082885467 -0.043845911 0.52641386
-0.081516452 -0.043663763 0.52572036
-0.080458142 -0.043745507 0.52594841
-0.07970494 -0.044091571 0.52709901
-0.078644738 -0.04417346 0.52732742
-0.077886023 -0.044519953 0.52847934
-0.077123538 -0.044866722 0.52963191
-0.075761944 -0.044684011 0.52893686
-0.074699938 -0.044766039 0.5291658
-0.073343903 -0.044582892 0.52846956
-0.072283722 -0.044664785 0.52869791
-0.057702206 -0.039457388 0.51009572
-0.056407485 -0.039269485 0.5093863
-0.055389989 -0.039348084 0.50960553
-0.054372542 -0.039426666 0.50982475
-0.053355061 -0.039505254 0.51004386
-0.052069604 -0.039316647 0.50933254
-0.051053982 -0.039395098 0.50955141
-0.050566915 -0.0400085 0.51163292
-0.049810018 -0.040354848 0.51278442
-0.048788819 -0.040433727 0.5130043
-0.047508966 -0.040244695 0.51229185
-0.047517061 -0.041395631 0.51624358
-0.046745256 -0.041743144 0.51739794
-0.045716673 -0.041822594 0.51761961
-0.044688053 -0.041902043 0.51784134
-0.044231452 -0.0462557 0.53276485
-0.043175004 -0.046337303 0.53299254
-0.042358704 -0.046688266 0.53415674
-0.04130036 -0.046770003 0.53438467
-0.04024205 -0.046851739 0.53461283
-0.039183721 -0.046933491 0.53484076
-0.037659965 -0.046475384 0.53319234
-0.03660538 -0.046556845 0.53341961
-0.035550766 -0.04663831 0.53364676
-0.015319559 -0.047913048 0.53701717
-0.014266795 -0.04799436 0.53724396
-0.013974111 -0.049168549 0.54126042
-0.012913926 -0.049250435 0.54148883
-0.011853764 -0.049332321 0.54171723
-0.010978041 -0.049687847 0.54289424
-0.010281165 -0.050317451 0.54502106
-0.0093961647 -0.050673719 0.54620016
-0.0083285738 -0.050756175 0.54643023
-0.0081460048 -0.052209742 0.55141103
-0.0074194605 -0.052841641 0.5535444
-0.0063388562 -0.05292511 0.55377722
-0.0052582524 -0.05300856 0.55401009
-0.12862122 -0.047540352 0.54544342
-0.12750722 -0.047626399 0.54568344
-0.12234849 -0.045736652 0.53888518
-0.12088484 -0.045563687 0.5382117
-0.1190623 -0.045132414 0.53662699
-0.11760793 -0.044958718 0.53595155
-0.11651618 -0.045043036 0.53618681
-0.11399624 -0.044093598 0.53277493
-0.11255673 -0.043918744 0.53209627
-0.11112093 -0.043743629 0.53141677
-0.10968883 -0.04356822 0.53073668
-0.10826049 -0.043392528 0.53005564
-0.10683584 -0.043216545 0.529374
-0.1054149 -0.043040257 0.52869141
-0.10434174 -0.043123141 0.52892268
-0.10292637 -0.042946443 0.52823889
-0.10117435 -0.042509727 0.52663881
-0.099768274 -0.042332288 0.52595317
-0.098365873 -0.042154595 0.52526641
-0.096967205 -0.041976605 0.52457911
-0.095572308 -0.041798323 0.52389097
-0.094181038 -0.041619763 0.52320194
-0.092793509 -0.041440897 0.52251208
-0.091737069 -0.041522503 0.52273971
-0.090680569 -0.041604102 0.52296722
-0.089624114 -0.041685697 0.52319491
-0.088567637 -0.041767303 0.52342242
-0.087831162 -0.042110212 0.52456999
-0.086772837 -0.042191967 0.52479804
-0.086030707 -0.042535316 0.52594662
-0.084970526 -0.042617191 0.52617496
-0.083910361 -0.042699087 0.52640337
-0.082850188 -0.042780973 0.52663183
-0.081481218 -0.042600688 0.52593797
-0.080729827 -0.042944748 0.52708858
-0.079669654 -0.043026626 0.52731705
-0.078609504 -0.043108512 0.52754551
-0.07785064 -0.043453146 0.52869761
-0.076788627 -0.043535169 0.52892655
-0.075726584 -0.043617196 0.52915531
-0.074368805 -0.043436058 0.52845919
-0.073308624 -0.043517947 0.5286876
-0.072248444 -0.043599829 0.52891594
-0.057113856 -0.037904248 0.50844735
-0.056098245 -0.037982695 0.50866616
-0.055356137 -0.038326032 0.50981468
-0.054067004 -0.038139585 0.50910378
-0.052781597 -0.037952833 0.50839186
-0.052035831 -0.03829648 0.50954145
-0.051020175 -0.038374912 0.50976014
-0.050268773 -0.03871898 0.51091069
-0.04951366 -0.039063316 0.51206213
-0.048494354 -0.039142046 0.51228184
-0.047216378 -0.038954742 0.51156843
-0.046198905 -0.039033327 0.51178759
-0.046711046 -0.040709898 0.51760966
-0.045682427 -0.040789351 0.51783127
-0.044196304 -0.045194492 0.53298223
-0.043139845 -0.045276094 0.53320974
-0.04232347 -0.045625187 0.53437442
-0.041265145 -0.045706928 0.53460246
-0.040443223 -0.046056442 0.53576833
-0.039148495 -0.045870423 0.53505832
-0.038090196 -0.045952156 0.53528643
-0.03657027 -0.045497507 0.53363645
-0.035973564 -0.046115644 0.53574252
-0.034915246 -0.046197392 0.53597045
-0.033856921 -0.046279132 0.53619844
-0.033021975 -0.046629645 0.53736711
-0.031961795 -0.046711534 0.53759551
-0.014231763 -0.046936877 0.53746045
-0.013938815 -0.048103608 0.5414784
-0.012878669 -0.048185486 0.54170698
-0.011818483 -0.048267379 0.54193532
-0.0107583 -0.048349261 0.54216367
-0.0096981432 -0.048431143 0.54239219
-0.0086379498 -0.04851304 0.54262048
-0.008650627 -0.050228197 0.54855001
-0.0082871355 -0.051400367 0.55258322
-0.0075585991 -0.052028682 0.55471766
-0.0066493931 -0.052384939 0.55590236
-0.0055650538 -0.052468698 0.55613583
-0.13007189 -0.046590563 0.54634106
-0.1282123 -0.046165887 0.54476351
-0.12710015 -0.046251789 0.54500312
-0.1237792 -0.044803377 0.53978413
-0.12267819 -0.044888426 0.54002142
-0.12084834 -0.04446144 0.53843749
-0.11902593 -0.044033907 0.536852
-0.11793231 -0.044118375 0.53708756
-0.11647987 -0.043946389 0.5364114
-0.11503109 -0.043774143 0.53573424
-0.11287583 -0.043088157 0.53323138
-0.11143824 -0.042915031 0.53255206
-0.10965296 -0.042484619 0.53095853
-0.10822466 -0.042310797 0.53027713
-0.10680006 -0.04213668 0.52959508
-0.10572505 -0.042219713 0.52982664
-0.10465001 -0.042302746 0.53005832
-0.10323286 -0.042128034 0.5293746
-0.10147912 -0.041695192 0.52777416
-0.10007122 -0.041519791 0.52708846
-0.098667055 -0.041344076 0.52640194
-0.09693186 -0.040909804 0.5247975
-0.095869832 -0.040991828 0.52502626
-0.09414582 -0.040556692 0.52341962
-0.093087524 -0.040638428 0.52364767
-0.09170188 -0.040461298 0.52295691
-0.090645418 -0.040542882 0.5231846
-0.089588977 -0.040624492 0.52341217
-0.08853253 -0.040706094 0.52363986
-0.087795921 -0.041047148 0.52478766
-0.08673761 -0.041128892 0.52501565
-0.085679285 -0.041210636 0.5252437
-0.08462096 -0.041292381 0.52547169
-0.08387512 -0.041634139 0.52662158
-0.082814924 -0.041716028 0.52684999
-0.081754737 -0.041797906 0.52707839
-0.080694556 -0.041879803 0.52730668
-0.079634391 -0.041961685 0.52753508
-0.07857421 -0.042043582 0.52776349
-0.077815332 -0.042386334 0.52891612
-0.076753281 -0.04246838 0.52914494
-0.075393677 -0.042289242 0.52844876
-0.074629232 -0.042632431 0.52960253
-0.073567174 -0.042714462 0.52983123
-0.072505184 -0.042796496 0.53006017
-0.058095697 -0.036805622 0.5084374
-0.057080083 -0.036884069 0.5086562
-0.056064438 -0.036962513 0.50887495
-0.055048842 -0.03704096 0.50909394
-0.053490054 -0.036593039 0.50745142
-0.052747872 -0.036934514 0.50860041
-0.051734127 -0.037012815 0.50881881
-0.050986383 -0.03735473 0.50996912
-0.050234932 -0.037696932 0.51112008
-0.049217466 -0.037775524 0.51133931
-0.048199981 -0.037854105 0.51155847
-0.047441103 -0.038196877 0.51271105
-0.046421744 -0.038275596 0.51293057
-0.042288255 -0.044562109 0.53459203
-0.04122993 -0.044643845 0.53482008
-0.040407933 -0.044991497 0.5359863
-0.039347753 -0.04507339 0.53621471
-0.038054965 -0.044889085 0.53550404
-0.03699667 -0.044970822 0.53573221
-0.035938334 -0.045052569 0.53596008
-0.034880038 -0.045134313 0.53618819
-0.034046855 -0.045482825 0.53735667
-0.032986693 -0.0455647 0.53758508
-0.03192652 -0.045646586 0.53781343
-0.025565472 -0.046137918 0.53918403
-0.024505293 -0.0462198 0.53941232
-0.023445129 -0.046301685 0.53964084
-0.02238494 -0.046383571 0.53986913
-0.014093422 -0.047308147 0.54264468
-0.013031393 -0.047390174 0.54287344
-0.011969372 -0.047472212 0.54310226
-0.010723028 -0.047284327 0.54238176
-0.0096628563 -0.047366206 0.54261017
-0.0086026629 -0.047448099 0.54283851
-0.0096874675 -0.05077415 0.55447376
-0.0086050145 -0.050857753 0.55470699
-0.0075225784 -0.050941356 0.55494022
-0.0064400868 -0.05102497 0.5551734
-0.0055289813 -0.051379509 0.55635881
-0.13003473 -0.045469668 0.54657066
-0.12817529 -0.045048729 0.54499227
-0.12706314 -0.045134626 0.545232
-0.12447874 -0.044205111 0.5418309
-0.12264155 -0.043782447 0.5402478
-0.12117616 -0.04361333 0.53957397
-0.11935201 -0.043189671 0.53798825
-0.11789591 -0.043019857 0.53731245
-0.11644354 -0.042849746 0.53663594
-0.11499484 -0.042679358 0.53595847
-0.11283976 -0.041998975 0.53345448
-0.11140222 -0.041827701 0.53277463
-0.10996841 -0.041656174 0.53209418
-0.10853833 -0.041484345 0.5314129
-0.10711192 -0.041312248 0.53073072
-0.10603505 -0.041395418 0.53096277
-0.10495816 -0.041478604 0.53119475
-0.10319709 -0.041050036 0.52959526
-0.10144352 -0.040620923 0.5279941
-0.10003569 -0.040447373 0.52730805
-0.098631583 -0.040273543 0.5266211
-0.096896529 -0.039842997 0.52501589
-0.095834523 -0.03992502 0.52524477
-0.094110601 -0.039493613 0.52363724
-0.093052328 -0.039575357 0.52386534
-0.091666736 -0.039400078 0.52317429
-0.090610266 -0.039481681 0.5234018
-0.089553818 -0.039563272 0.52362943
-0.08849737 -0.039644878 0.52385718
-0.087440893 -0.039726477 0.52408475
-0.086702392 -0.040065821 0.52523327
-0.085644051 -0.040147562 0.52546126
-0.084585764 -0.040229306 0.52568936
-0.083527423 -0.04031105 0.52591735
-0.082779624 -0.040651087 0.52706796
-0.081719466 -0.040732969 0.5272963
-0.08065924 -0.040814862 0.52752459
-0.079599082 -0.040896747 0.527753
-0.078538932 -0.040978637 0.52798158
-0.077478744 -0.041060522 0.52820987
-0.076418564 -0.041142408 0.52843833
-0.075358413 -0.04122429 0.52866679
-0.074298225 -0.041306186 0.5288952
-0.07323803 -0.041388061 0.52912354
-0.072469823 -0.041729685 0.5302785
-0.059077501 -0.035706993 0.5084275
-0.058061898 -0.035785444 0.50864637
-0.056769166 -0.035602998 0.50793529
-0.055755407 -0.0356813 0.50815368
-0.054741669 -0.035759602 0.50837213
-0.053456388 -0.035576593 0.50765961
-0.052174833 -0.03539329 0.50694633
-0.051432595 -0.035732895 0.50809574
-0.050420661 -0.035811067 0.50831348
-0.049936969 -0.036413003 0.51039672
-0.048921354 -0.036491446 0.51061547
-0.047905758 -0.036569893 0.5108344
-0.046890143 -0.036648333 0.51105326
-0.04613119 -0.036989238 0.51220614
-0.043069519 -0.04315367 0.53364432
-0.042253032 -0.043499034 0.53480971
-0.04095659 -0.043316878 0.53409952
-0.039900117 -0.043398473 0.53432709
-0.039078068 -0.04374427 0.53549373
-0.038019747 -0.043826006 0.53572172
-0.036961425 -0.043907754 0.53594983
-0.035903126 -0.043989494 0.53617775
-0.034844816 -0.044071238 0.5364058
-0.033786472 -0.044152979 0.53663373
-0.032728165 -0.04423473 0.53686184
-0.031669851 -0.044316471 0.53708982
-0.027864523 -0.045174945 0.53988868
-0.026802467 -0.04525698 0.54011738
-0.025740445 -0.045339007 0.54034615
-0.024469992 -0.045154855 0.53963035
-0.023409842 -0.045236744 0.53985882
-0.022349652 -0.045318633 0.54008722
-0.021289498 -0.045400511 0.54031569
-0.014058092 -0.046241332 0.54286307
-0.012996057 -0.04632337 0.54309189
-0.012120127 -0.046673309 0.54427004
-0.011056259 -0.04675547 0.54449928
-0.0099923527 -0.046837654 0.5447284
-0.010011717 -0.048529875 0.55066091
-0.009472766 -0.049418345 0.55374551
-0.0083921654 -0.049501814 0.55397826
-0.0074865329 -0.049854029 0.55516279
-0.0069234516 -0.050744377 0.55825263
-0.0058354149 -0.050828423 0.55848694
-0.1281383 -0.043931562 0.54522097
-0.12665625 -0.043765631 0.54455042
-0.12444194 -0.043095406 0.54205811
-0.12297104 -0.042928606 0.54138517
-0.12113957 -0.042509224 0.53980011
-0.11931556 -0.042089298 0.53821343
-0.11785949 -0.041921344 0.53753734
-0.11640719 -0.04175311 0.53686041
-0.11495855 -0.04158457 0.53618252
-0.11315867 -0.041162778 0.53459078
-0.11136619 -0.040740389 0.53299725
-0.11028376 -0.040823992 0.53323066
-0.10885185 -0.040654186 0.5325492
-0.10707609 -0.040230513 0.53095222
-0.10599922 -0.040313698 0.53118426
-0.10457845 -0.04014302 0.53050053
-0.10316139 -0.039972048 0.52981585
-0.10140794 -0.039546657 0.52821404
-0.10000014 -0.039374977 0.52752745
-0.098596111 -0.039203007 0.52684009
-0.096526623 -0.038521621 0.52431661
-0.095133707 -0.03834879 0.52362686
-0.094075397 -0.038430542 0.52385491
-0.092688054 -0.038257264 0.52316403
-0.091304421 -0.038083732 0.5224722
-0.090249822 -0.038165189 0.52269942
-0.089195199 -0.038246647 0.52292657
-0.088140622 -0.038328093 0.52315378
-0.087086007 -0.038409553 0.52338099
-0.086667158 -0.039002746 0.52545089
-0.08455053 -0.039166227 0.5259071
-0.083492205 -0.039247975 0.52613497
-0.081992745 -0.039924603 0.52843761
-0.080930702 -0.040006638 0.52866638
-0.079563819 -0.039831802 0.52797121
-0.078503639 -0.039913692 0.52819961
-0.077443473 -0.039995581 0.52842808
-0.076383293 -0.040077467 0.52865642
-0.075025678 -0.039901923 0.52795905
-0.07396733 -0.039983664 0.5281871
-0.073202766 -0.040323127 0.52934164
-0.061359379 -0.034788366 0.50912726
-0.060341902 -0.034866955 0.50934643
-0.059324428 -0.034945544 0.50956571
-0.058028102 -0.034765258 0.50885522
-0.05673543 -0.034584671 0.50814378
-0.055721678 -0.034662977 0.50836223
-0.054707929 -0.034741282 0.50858068
-0.053151254 -0.034300692 0.50693637
-0.05187159 -0.034119125 0.50622225
-0.051131155 -0.03445673 0.5073716
-0.050121129 -0.034534734 0.50758922
-0.049111053 -0.03461276 0.50780678
-0.048625369 -0.035211094 0.50989103
-0.047611617 -0.035289396 0.51010942
-0.046856344 -0.035628151 0.51126212
-0.04609732 -0.035967194 0.51241535
-0.043034349 -0.042092465 0.53386152
-0.04197789 -0.042174071 0.53408909
-0.040921427 -0.042255659 0.53431672
-0.040101174 -0.042599451 0.53548336
-0.039042842 -0.042681187 0.53571135
-0.037984528 -0.042762935 0.53593934
-0.036926232 -0.042844675 0.53616744
-0.035867877 -0.042926427 0.53639537
-0.034809571 -0.043008167 0.53662342
-0.033751257 -0.0430899 0.53685147
-0.032692943 -0.043171655 0.53707945
-0.031634621 -0.043253396 0.53730744
-0.02782915 -0.044108137 0.54010695
-0.026767122 -0.044190176 0.54033583
-0.025705088 -0.044272203 0.5405646
-0.024643064 -0.044354234 0.54079336
-0.023374546 -0.044171803 0.54007685
-0.022518996 -0.044518288 0.541251
-0.021456959 -0.044600319 0.54147977
-0.014212497 -0.04544029 0.54403031
-0.013148609 -0.045522463 0.54425955
-0.012084742 -0.045604631 0.54448891
-0.012126002 -0.047283944 0.55041885
-0.011050988 -0.047366973 0.55065048
-0.0099759577 -0.04745001 0.5508821
-0.0096154325 -0.0485995 0.55491906
-0.0087097427 -0.04894989 0.556104
-0.0076254434 -0.049033627 0.55633771
-0.0065411134 -0.04911739 0.55657119
-0.0057991771 -0.049735505 0.55871063
-0.12810132 -0.042814404 0.54544979
-0.12661932 -0.042650327 0.54477888
-0.12514107 -0.042485949 0.54410714
-0.12293439 -0.041820765 0.54161209
-0.12073874 -0.04115472 0.53911442
-0.11891671 -0.040738367 0.53752661
-0.11746257 -0.040572125 0.53684962
-0.11637085 -0.040656447 0.53708488
-0.11492227 -0.040489789 0.5364067
-0.11312254 -0.040071733 0.53481412
-0.11168329 -0.039904349 0.53413409
-0.11024771 -0.039736673 0.53345311
-0.1084665 -0.039317172 0.53185654
-0.10704024 -0.039148793 0.53117371
-0.10561772 -0.038980123 0.53048998
-0.10419885 -0.038811162 0.5298053
-0.10278373 -0.03864193 0.52912009
-0.10137232 -0.038472392 0.52843398
-0.10030289 -0.038554993 0.52866447
-0.098897062 -0.038385045 0.52797711
-0.096825823 -0.037709378 0.52545267
-0.095431171 -0.037538562 0.52476311
-0.094040148 -0.037367459 0.52407259
-0.092652887 -0.037196063 0.52338129
-0.091596432 -0.037277654 0.5236088
-0.090539992 -0.037359264 0.52383649
-0.089160107 -0.037187293 0.52314347
-0.088105507 -0.037268743 0.52337074
-0.08705093 -0.037350196 0.52359807
-0.0819574 -0.038857803 0.52865601
-0.080895379 -0.038939826 0.52888483
-0.079833344 -0.039021865 0.52911371
-0.078468353 -0.03884875 0.52841765
-0.077408195 -0.038930636 0.52864605
-0.076347992 -0.039012525 0.52887434
-0.075287811 -0.039094407 0.52910268
-0.074227661 -0.039176296 0.52933121
-0.062342986 -0.033687737 0.50911731
-0.061325531 -0.033766322 0.50933653
-0.060025502 -0.033588205 0.50862634
-0.059009902 -0.033666641 0.50884527
-0.057994306 -0.03374508 0.50906408
-0.056701686 -0.033566363 0.50835228
-0.055687919 -0.033644665 0.50857055
-0.053854425 -0.032950658 0.50599509
-0.052846231 -0.033028532 0.50621241
-0.051838048 -0.033106409 0.50642967
-0.050829846 -0.033184275 0.50664675
-0.049821679 -0.033262148 0.50686401
-0.048813485 -0.033340015 0.50708121
-0.048329499 -0.033934481 0.50916576
-0.047317617 -0.034012645 0.50938386
-0.046305727 -0.034090798 0.50960195
-0.041942742 -0.041112855 0.53430647
-0.040886298 -0.041194446 0.53453416
-0.040302057 -0.041796673 0.53664029
-0.039241903 -0.041878551 0.53686881
-0.037949301 -0.041699853 0.53615695
-0.036891002 -0.041781597 0.53638512
-0.035832677 -0.041863345 0.53661305
-0.034774363 -0.041945077 0.53684109
-0.033716034 -0.042026822 0.53706896
-0.032657716 -0.042108573 0.53729707
-0.031599399 -0.042190313 0.53752506
-0.025669733 -0.043205399 0.54078293
-0.024607698 -0.043287426 0.54101175
-0.023339286 -0.04310685 0.54029495
-0.022483651 -0.043451477 0.5414694
-0.021421626 -0.043533515 0.54169828
-0.020359585 -0.04361555 0.54192704
-0.0143668 -0.044635501 0.5451985
-0.01348889 -0.044981863 0.54637784
-0.012421294 -0.04506433 0.54660779
-0.012090238 -0.046204079 0.55063999
-0.011015219 -0.046287108 0.55087161
-0.0099401819 -0.046370141 0.55110317
-0.00957938 -0.047512181 0.55514157
-0.0086736428 -0.047860697 0.55632693
-0.0075893453 -0.047944441 0.55656064
-0.0065050544 -0.048028193 0.55679429
-0.12806426 -0.041697245 0.54567838
-0.12658237 -0.041535035 0.54500711
-0.12510417 -0.041372523 0.54433507
-0.12289771 -0.040712934 0.54183888
-0.12070221 -0.040052474 0.53934014
-0.11888033 -0.039639857 0.53775156
-0.11742623 -0.039475486 0.53707409
-0.11597592 -0.039310828 0.53639609
-0.11488603 -0.039395012 0.53663087
-0.11308639 -0.038980681 0.53503752
-0.11164717 -0.038815163 0.53435701
-0.11021168 -0.03864935 0.53367573
-0.10877994 -0.03848327 0.53299373
-0.10735188 -0.038316898 0.53231084
-0.10558194 -0.037900269 0.53071111
-0.10416313 -0.037733156 0.53002602
-0.1024062 -0.037315525 0.52842355
-0.10099673 -0.037147723 0.52773666
-0.099929124 -0.037230179 0.52796674
-0.098525204 -0.037061926 0.5272786
-0.0967905 -0.036642566 0.52567118
-0.095395878 -0.036473621 0.52498114
-0.094004929 -0.036304388 0.52429008
-0.09261772 -0.036134839 0.52359849
-0.091561243 -0.036216445 0.523826
-0.090179607 -0.036046498 0.52313316
-0.089125037 -0.036127944 0.52336037
-0.088070422 -0.036209401 0.52358764
-0.087015793 -0.036290865 0.52381486
-0.081922054 -0.037790991 0.52887446
-0.080553412 -0.037620045 0.52817875
-0.07949324 -0.037701923 0.52840716
-0.078433082 -0.037783813 0.52863562
-0.077372916 -0.037865691 0.52886409
-0.076312721 -0.037947576 0.52909249
-0.075252555 -0.038029473 0.52932078
-0.074192353 -0.038111351 0.52954924
-0.062309131 -0.032665692 0.50932652
-0.061007325 -0.032489568 0.50861639
-0.059991691 -0.032568011 0.5088352
-0.058695458 -0.032391451 0.50812382
-0.05768171 -0.032469749 0.50834233
-0.056114119 -0.032037485 0.50669885
-0.054829057 -0.031860076 0.5059852
-0.053547669 -0.031682376 0.50527078
-0.05254133 -0.031760108 0.5054875
-0.051535022 -0.031837825 0.50570446
-0.050528672 -0.03191556 0.50592119
-0.04978811 -0.032249432 0.50707126
-0.049043864 -0.032583579 0.50822234
-0.048295863 -0.032918036 0.50937396
-0.04702374 -0.032739613 0.5086574
-0.046013717 -0.032817625 0.50887513
-0.041907601 -0.040051635 0.53452379
-0.040851131 -0.040133234 0.53475142
-0.040030729 -0.040473294 0.53591865
-0.038972408 -0.040555038 0.5361467
-0.037914082 -0.040636782 0.53637469
-0.036625266 -0.040459637 0.5356617
-0.035797466 -0.040800266 0.53683078
-0.034739122 -0.04088201 0.53705865
-0.033455875 -0.040704437 0.53634453
-0.032399416 -0.040786035 0.5365721
-0.025634402 -0.04213858 0.54100138
-0.024364151 -0.041960035 0.54028445
-0.023303982 -0.042041924 0.54051292
-0.022243803 -0.042123802 0.54074126
-0.021183634 -0.042205688 0.54096973
-0.02012348 -0.042287569 0.54119825
-0.019262219 -0.042630773 0.54237431
-0.018200167 -0.042712804 0.54260308
-0.014331324 -0.043564979 0.54541767
-0.01345338 -0.043909471 0.54659748
-0.013873204 -0.046090424 0.55443144
-0.012790754 -0.046174027 0.55466467
-0.011708305 -0.046257634 0.5548979
-0.010625833 -0.04634124 0.55513108
-0.0097218854 -0.046687756 0.55631638
-0.0086375847 -0.046771497 0.55655015
-0.0075532608 -0.046855256 0.55678362
-0.11593962 -0.038216043 0.53662014
-0.11484976 -0.038300239 0.53685498
-0.11305027 -0.037889615 0.53526092
-0.11196408 -0.037973508 0.53549486
-0.11052679 -0.037809733 0.53481358
-0.10944247 -0.037893482 0.53504729
-0.10731595 -0.037233308 0.53253257
-0.10554618 -0.036820401 0.53093213
-0.10412743 -0.036655162 0.53024673
-0.1023706 -0.036241252 0.52864349
-0.1009612 -0.03607532 0.52795631
-0.099893585 -0.036157783 0.52818626
-0.098489702 -0.0359914 0.52749771
-0.09675514 -0.035575766 0.52588952
-0.095360585 -0.035408683 0.52519917
-0.093969747 -0.03524131 0.52450788
-0.092911415 -0.03532305 0.52473587
-0.091526091 -0.035155233 0.52404332
-0.090469621 -0.035236835 0.52427095
-0.089089945 -0.035068601 0.52357733
-0.088035315 -0.035150055 0.52380455
-0.086980738 -0.035231516 0.52403176
-0.079905018 -0.036052834 0.52654701
-0.07915327 -0.036385722 0.52770001
-0.078094952 -0.036467455 0.52792799
-0.077036656 -0.036549207 0.5281561
-0.075978331 -0.036630943 0.52838403
-0.074920014 -0.036712684 0.52861202
-0.074157119 -0.03704641 0.52976733
-0.062275261 -0.03164364 0.50953585
-0.060973536 -0.03146939 0.5088253
-0.059675489 -0.03129483 0.50811398
-0.058100637 -0.030866869 0.50647151
-0.057369273 -0.031198159 0.50761986
-0.056080528 -0.031022897 0.50690663
-0.054520518 -0.030593786 0.50526088
-0.053514194 -0.030671518 0.50547773
-0.052507866 -0.030749245 0.50569457
-0.051501513 -0.030826973 0.50591129
