# .PCD v0.7 - Point Cloud Data file format
VERSION 0.7
FIELDS x y z
SIZE 4 4 4
TYPE F F F
COUNT 1 1 1
WIDTH 1349
HEIGHT 1
VIEWPOINT 0 0 0 1 0 0 0
POINTS 1349
DATA ascii
-0.082059346 0.059174545 0.6179626
-0.081118062 0.059292614 0.61765862
-0.080176771 0.059410684 0.61735457
-0.079235494 0.059528753 0.61705053
-0.07829421 0.059646823 0.61674649
-0.077204898 0.059851278 0.61743981
-0.076411642 0.059882961 0.6161384
-0.075470358 0.060001031 0.61583436
-0.074529067 0.0601191 0.61553031
-0.073587783 0.060237169 0.61522627
-0.072646499 0.060355235 0.61492223
-0.071705207 0.060473304 0.61461818
-0.070763931 0.060591374 0.6143142
-0.069822647 0.060709443 0.61401016
-0.069045573 0.0607391 0.61271399
-0.068106093 0.060856942 0.61241055
-0.067166604 0.060974788 0.6121071
-0.066566348 0.060914449 0.60982293
-0.065630466 0.061031841 0.60952067
-0.058453143 0.060507994 0.58525437
-0.057749864 0.060528394 0.58398211
-0.057050191 0.060548339 0.58271092
-0.056155697 0.060660541 0.58242202
-0.055461422 0.060679812 0.58115262
-0.05456873 0.060791787 0.58086431
-0.053676035 0.060903758 0.58057594
-0.052577738 0.061109338 0.58126634
-0.051890656 0.061127707 0.57999927
-0.050788756 0.061333735 0.58068848
-0.049894262 0.061445937 0.58039957
-0.049212582 0.061463628 0.57913423
-0.048319895 0.061575603 0.57884592
-0.047210794 0.061782535 0.5795328
-0.046316303 0.061894733 0.57924384
-0.027194565 0.06693805 0.613828
-0.026229881 0.067059055 0.61351639
-0.025023594 0.067278184 0.61417186
-0.024300518 0.067301065 0.61289322
-0.023090629 0.067520641 0.6135475
-0.022124149 0.067641869 0.61323535
-0.020908847 0.067862131 0.61388797
-0.019689962 0.068082832 0.61453944
-0.018467477 0.068303987 0.61518967
-0.017495595 0.068425894 0.61487573
-0.016267709 0.068647727 0.61552429
-0.015036212 0.068870015 0.61617172
-0.014060732 0.068992376 0.61585659
-0.01282385 0.069215335 0.61650223
-0.011320163 0.069539584 0.61810678
-0.0095442608 0.069965787 0.62066859
-0.0085579818 0.070089497 0.62035
-0.0075717019 0.070213214 0.62003148
-0.0063150208 0.070438661 0.62067068
-0.0053269416 0.070562594 0.62035149
-0.11544814 0.057521068 0.65160894
-0.11446726 0.057644103 0.65129209
-0.11356212 0.057687912 0.64995486
-0.11266058 0.057731267 0.64861876
-0.11176265 0.057774168 0.64728385
-0.1108683 0.057816617 0.64595002
-0.10997758 0.057858616 0.64461744
-0.10909044 0.057900168 0.64328599
-0.10812036 0.058021847 0.64297265
-0.10723861 0.058062721 0.64164293
-0.10627034 0.058184177 0.64133018
-0.10548594 0.058143109 0.638987
-0.10480248 0.058019653 0.63563156
-0.10393874 0.058058262 0.63430762
-0.10298126 0.058178365 0.63399839
-0.10202378 0.058298465 0.63368911
-0.1010663 0.058418564 0.63337982
-0.10021155 0.058456052 0.63205886
-0.099360406 0.058493085 0.63073903
-0.098406531 0.058612734 0.63043094
-0.097452648 0.058732383 0.63012284
-0.096608698 0.058768515 0.62880534
-0.095880106 0.058720447 0.62648016
-0.09493161 0.058839418 0.62617379
-0.093983129 0.058958393 0.62586749
-0.093034647 0.059077363 0.62556112
-0.092086159 0.059196334 0.62525475
-0.091137685 0.059315305 0.62494838
-0.090311728 0.059349183 0.62363672
-0.08936505 0.059467927 0.62333089
-0.088544503 0.059501123 0.62202102
-0.087855503 0.059448089 0.6197086
-0.086914212 0.059566159 0.61940455
-0.085972928 0.059684228 0.61910051
-0.085164972 0.059715845 0.61779469
-0.084090367 0.059920363 0.61849248
-0.083149068 0.060038436 0.61818844
-0.082207784 0.060156506 0.6178844
-0.081266508 0.060274571 0.61758035
-0.080325216 0.060392641 0.61727631
-0.079383932 0.06051071 0.61697227
-0.078442656 0.060628779 0.61666822
-0.077353619 0.060835112 0.61736143
-0.07656008 0.060864918 0.61606014
-0.075618804 0.060982987 0.61575609
-0.074677512 0.061101057 0.61545205
-0.073736221 0.061219126 0.61514807
-0.072794944 0.061337195 0.61484402
-0.071853653 0.061455265 0.61453998
-0.070912369 0.061573334 0.61423594
-0.069971085 0.0616914 0.61393189
-0.069193728 0.061719179 0.61263591
-0.068088517 0.061927538 0.61332381
-0.067147233 0.062045608 0.61301976
-0.053816818 0.061835025 0.58050174
-0.0527188 0.062042478 0.58119196
-0.051824309 0.062154677 0.58090305
-0.050929822 0.062266879 0.58061415
-0.050035328 0.062379077 0.58032519
-0.049140837 0.062491275 0.58003628
-0.048246343 0.062603474 0.57974738
-0.047351856 0.062715672 0.57945842
-0.028311377 0.067823417 0.61405939
-0.027346697 0.067944422 0.61374778
-0.026382012 0.06806542 0.61343622
-0.025417332 0.068186425 0.61312461
-0.024452649 0.06830743 0.612813
-0.023487967 0.068428434 0.61250144
-0.022523286 0.068549439 0.61218983
-0.020813027 0.068973146 0.61477214
-0.019842947 0.069094829 0.6144588
-0.018872866 0.069216512 0.61414546
-0.017902784 0.069338195 0.61383212
-0.016676983 0.069561675 0.61448103
-0.015705101 0.069683582 0.61416715
-0.014214568 0.070010006 0.61577553
-0.0077272407 0.071242109 0.61994946
-0.0064708432 0.071469434 0.62058854
-0.0054827644 0.071593374 0.62026942
-0.11560283 0.05854433 0.6515274
-0.11454829 0.058748245 0.6522314
-0.11371652 0.058709297 0.64987344
-0.11281469 0.058750775 0.64853752
-0.11191649 0.058791801 0.64720273
-0.11102186 0.058832373 0.64586908
-0.11013085 0.058872495 0.64453661
-0.10924342 0.058912165 0.64320534
-0.10827335 0.059033848 0.642892
-0.10739131 0.059072845 0.64156246
-0.10660275 0.059028469 0.63921839
-0.10563807 0.059149474 0.63890684
-0.10467339 0.059270475 0.63859522
-0.10408974 0.059057117 0.63422805
-0.10313226 0.05917722 0.63391876
-0.10217477 0.05929732 0.63360953
-0.10121729 0.059417419 0.63330024
-0.10036227 0.059453029 0.63197941
-0.099510834 0.059488188 0.63065976
-0.098556958 0.059607834 0.63035166
-0.09771093 0.059642315 0.62903374
-0.09675885 0.059761737 0.62872624
-0.095806763 0.059881162 0.62841868
-0.095081188 0.059828889 0.626095
-0.094132707 0.059947859 0.62578863
-0.093184225 0.06006683 0.62548226
-0.092235737 0.060185805 0.62517589
-0.091407709 0.060218025 0.62386382
-0.09058328 0.060249798 0.62255287
-0.089638397 0.060368318 0.62224764
-0.088819362 0.060399409 0.62093848
-0.088003941 0.060430046 0.6196304
-0.087062657 0.060548116 0.61932635
-0.086121373 0.060666185 0.61902231
-0.085180089 0.060784254 0.61871827
-0.084238805 0.060902324 0.61841422
-0.083297513 0.061020393 0.61811018
-0.082356229 0.061138462 0.61780614
-0.081414945 0.061256532 0.61750209
-0.080473661 0.061374601 0.61719805
-0.079532377 0.06149267 0.61689401
-0.078445435 0.061700653 0.61758763
-0.077502348 0.06181895 0.61728305
-0.076559268 0.061937243 0.61697841
-0.075767241 0.061964944 0.61567789
-0.074825957 0.062083013 0.61537385
-0.073884666 0.062201083 0.61506981
-0.072943382 0.062319152 0.61476576
-0.072002098 0.062437221 0.61446172
-0.071060814 0.062555291 0.61415768
-0.07011953 0.06267336 0.61385363
-0.069178239 0.062791429 0.61354959
-0.068236962 0.062909499 0.61324555
-0.067295678 0.063027568 0.61294156
-0.052859861 0.062975623 0.58111763
-0.051965371 0.063087821 0.58082867
-0.050862238 0.063297831 0.58151704
-0.049965944 0.06341026 0.58122754
-0.049281899 0.063424416 0.5799619
-0.048387408 0.063536622 0.57967299
-0.047492921 0.06364882 0.57938409
-0.028463509 0.068829782 0.61397922
-0.02749883 0.068950787 0.61366761
-0.026534146 0.069071792 0.61335599
-0.025569465 0.069192789 0.61304444
-0.024604782 0.069313794 0.61273283
-0.023395462 0.069537126 0.61338687
-0.022428982 0.069658354 0.61307466
-0.021214247 0.069882371 0.61372703
-0.01999593 0.070106827 0.61437815
-0.018774012 0.070331737 0.61502814
-0.017802132 0.070453644 0.61471421
-0.016574813 0.070679232 0.61536241
-0.015601133 0.07080137 0.61504793
-0.11554278 0.059815194 0.65450978
-0.11470326 0.059773389 0.65214974
-0.11387093 0.059730683 0.64979208
-0.11296882 0.059770282 0.64845628
-0.11207032 0.059809431 0.64712167
-0.11125599 0.059764463 0.64476979
-0.11036647 0.059802487 0.64343804
-0.10939641 0.059924167 0.6431247
-0.1085123 0.059961509 0.64179474
-0.10763179 0.059998397 0.64046586
-0.10675488 0.060034834 0.63913822
-0.10579021 0.060155839 0.63882661
-0.1049187 0.060191602 0.6375007
-0.10414576 0.060141444 0.63516223
-0.10328326 0.060176075 0.63383919
-0.10232577 0.060296174 0.63352996
-0.10136829 0.060416277 0.63322067
-0.10051298 0.060450006 0.63190001
-0.099557295 0.060569882 0.63159132
-0.098707385 0.060602937 0.63027239
-0.097753502 0.060722586 0.62996429
-0.096799612 0.060842235 0.62965614
-0.095845737 0.060961884 0.62934804
-0.095230766 0.060818356 0.62601614
-0.094282284 0.060937326 0.62570977
-0.093333803 0.061056301 0.6254034
-0.092385314 0.061175272 0.62509704
-0.091557004 0.061205614 0.62378508
-0.090610318 0.061324362 0.62347931
-0.089787409 0.06135403 0.62216914
-0.088968091 0.061383247 0.6208601
-0.088152386 0.061412003 0.61955214
-0.087211095 0.061530072 0.61924809
-0.086269818 0.061648142 0.61894405
-0.085328534 0.061766211 0.61864001
-0.08438725 0.06188428 0.61833596
-0.083445959 0.06200235 0.61803192
-0.082504675 0.062120419 0.61772788
-0.081563391 0.062238488 0.61742389
-0.080622099 0.062356558 0.61711985
-0.079680823 0.062474627 0.61681581
-0.078594163 0.062684491 0.61750925
-0.077503905 0.062894799 0.61820149
-0.076707989 0.062921077 0.61690003
-0.075764909 0.06303937 0.61659539
-0.074974395 0.06306497 0.61529559
-0.074033111 0.063183039 0.61499155
-0.073091827 0.063301109 0.6146875
-0.072150536 0.063419178 0.61438346
-0.071209259 0.063537247 0.61407948
-0.070267975 0.063655317 0.61377543
-0.069326684 0.063773386 0.61347139
-0.0683854 0.063891456 0.61316735
-0.053000927 0.063908763 0.58104324
-0.052106436 0.064020962 0.58075434
-0.051003583 0.064232856 0.58144253
-0.050107289 0.064345278 0.58115304
-0.049211003 0.0644577 0.58086354
-0.048314709 0.064570129 0.58057404
-0.027650964 0.069957152 0.61358744
-0.026686279 0.070078157 0.61327583
-0.025721598 0.070199162 0.61296421
-0.024756916 0.070320159 0.61265266
-0.023792233 0.070441164 0.61234105
-0.022827551 0.070562169 0.61202943
-0.021118995 0.070997149 0.61461085
-0.020148914 0.071118832 0.61429751
-0.01867573 0.071450725 0.61591047
-0.017702049 0.071572855 0.615596
-0.016728366 0.071694992 0.61528146
-0.015754685 0.071817122 0.61496699
-0.11733241 0.061016463 0.66017646
-0.11668459 0.06072038 0.65474635
-0.11569832 0.060844094 0.65442777
-0.11478513 0.060883168 0.65308869
-0.11395042 0.060836934 0.65073067
-0.11312293 0.060789794 0.64837503
-0.11222416 0.060827062 0.64704061
-0.11140926 0.060778338 0.64468896
-0.11051946 0.060814485 0.6433574
-0.10954939 0.060936164 0.64304411
-0.108665 0.060971629 0.64171427
-0.1077842 0.061006639 0.64038551
-0.10690702 0.061041202 0.63905805
-0.10594234 0.061162204 0.63874644
-0.10507055 0.061196089 0.63742071
-0.10429704 0.06114218 0.63508254
-0.10343425 0.061174929 0.63375962
-0.10247677 0.061295033 0.63345033
-0.10151929 0.061415132 0.6331411
-0.10056181 0.061535232 0.63283181
-0.099604324 0.061655335 0.63252252
-0.09885782 0.061598036 0.63019311
-0.097903937 0.061717685 0.62988496
-0.097059138 0.061748184 0.62856793
-0.096107051 0.06186761 0.62826043
-0.095267653 0.061897427 0.62694508
-0.094431862 0.061926797 0.62563092
-0.093483381 0.062045768 0.62532461
-0.0925349 0.062164739 0.62501824
-0.091706298 0.062193207 0.6237064
-0.090881303 0.062221222 0.62239575
-0.089689448 0.062521651 0.62409914
-0.088866249 0.062549442 0.62278908
-0.088300832 0.062393963 0.61947387
-0.08735954 0.062512033 0.61916983
-0.086418256 0.062630102 0.61886579
-0.08547698 0.062748171 0.6185618
-0.084535696 0.062866241 0.61825776
-0.083594397 0.06298431 0.61795372
-0.082653113 0.063102379 0.61764967
-0.081711836 0.063220449 0.61734563
-0.080770545 0.063338518 0.61704159
-0.079829261 0.063456587 0.61673754
-0.078742884 0.063668326 0.61743087
-0.077652916 0.063880511 0.61812299
-0.076708034 0.063999027 0.61781776
-0.075913638 0.064023212 0.61651701
-0.075122841 0.064046927 0.61521739
-0.074181549 0.064164996 0.61491334
-0.073240273 0.064283065 0.6146093
-0.072298981 0.064401135 0.61430526
-0.071357697 0.064519204 0.61400121
-0.070416413 0.064637274 0.61369717
-0.069475129 0.064755343 0.61339313
-0.068533845 0.064873412 0.61308908
-0.051144931 0.065167874 0.58136803
-0.050248638 0.065280296 0.58107853
-0.049352348 0.065392725 0.58078903
-0.048456054 0.065505147 0.58049953
-0.026838411 0.071084522 0.61319566
-0.02587373 0.071205527 0.61288404
-0.024909047 0.071326531 0.61257243
-0.023944365 0.071447529 0.61226088
-0.022979684 0.071568534 0.61194927
-0.021519648 0.07190261 0.61356604
-0.020301899 0.072130829 0.61421686
-0.018829281 0.072466478 0.61582953
-0.017602516 0.072695829 0.61647755
-0.016627034 0.072818182 0.61616242
-0.015651554 0.072940543 0.61584735
-0.014676074 0.073062904 0.61553228
-0.11748936 0.062054746 0.66009372
-0.11690933 0.061663214 0.65364283
-0.11592486 0.061786704 0.65332484
-0.11494039 0.06191019 0.65300685
-0.11403053 0.061946932 0.65166897
-0.11320066 0.061896265 0.64931309
-0.11237799 0.061844695 0.64695948
-0.11156253 0.061792217 0.6446082
-0.11067244 0.061826482 0.64327681
-0.10978597 0.061860297 0.64194655
-0.1088177 0.061981749 0.64163375
-0.10793662 0.062014882 0.64030522
-0.10705915 0.062047567 0.63897789
-0.10618528 0.062079798 0.63765168
-0.1054076 0.062022585 0.63531262
-0.10454274 0.062053684 0.63398927
-0.10358525 0.062173788 0.63368005
-0.10262777 0.062293887 0.63337076
-0.10167029 0.062413987 0.63306147
-0.10071281 0.062534086 0.63275224
-0.099858724 0.062563837 0.63143241
-0.099008247 0.06259314 0.63011378
-0.09816137 0.062621981 0.62879634
-0.097318098 0.062650375 0.62747997
-0.096367806 0.062769569 0.62717301
-0.095417514 0.062888771 0.6268661
-0.09458144 0.062916264 0.62555212
-0.093632959 0.063035235 0.62524575
-0.092802286 0.063062049 0.62393349
-0.091855593 0.063180797 0.62362772
-0.091030315 0.063206933 0.62231725
-0.089839034 0.063511126 0.62402028
-0.089265548 0.063350916 0.62070328
-0.08844927 0.06337592 0.61939567
-0.08763659 0.063400477 0.61808926
-0.086566702 0.063612059 0.61878759
-0.085757613 0.063636169 0.6174823
-0.084684134 0.063848197 0.6181795
-0.083878644 0.063871853 0.61687541
-0.082801558 0.064084336 0.61757141
-0.081860274 0.064202406 0.61726737
-0.08091899 0.064320475 0.61696333
-0.079977706 0.064438544 0.61665928
-0.078891613 0.06465216 0.61735249
-0.077801928 0.064866222 0.61804444
-0.077005446 0.064888746 0.61674327
-0.076062359 0.065007046 0.61643863
-0.075271286 0.065028884 0.61513913
-0.074329995 0.065146953 0.61483508
-0.073233105 0.065361924 0.61552477
-0.072447427 0.065383092 0.614227
-0.071506143 0.065501161 0.61392295
-0.070564859 0.06561923 0.61361891
-0.069623567 0.0657373 0.61331487
-0.068682291 0.065855369 0.61301088
-0.026990544 0.072090887 0.61311549
-0.026025863 0.072211891 0.61280388
-0.025061181 0.072332896 0.61249226
-0.023852712 0.07256186 0.61314583
-0.022640631 0.072791278 0.61379832
-0.021424964 0.073021144 0.61444956
-0.020454884 0.073142827 0.61413628
-0.019233817 0.07337337 0.61478579
-0.017756352 0.073713459 0.61639643
-0.01678087 0.073835813 0.61608136
-0.01580539 0.073958173 0.61576629
-0.01482991 0.074080534 0.61545122
-0.11699566 0.062778175 0.65458238
-0.11608011 0.062813722 0.65324301
-0.11509565 0.062937208 0.65292501
-0.11418549 0.062972076 0.65158731
-0.11343118 0.062828809 0.64821261
-0.11253183 0.062862322 0.64687842
-0.11171579 0.062806092 0.64452744
-0.11082543 0.06283848 0.64319617
-0.10993868 0.062870413 0.64186603
-0.10905552 0.062901899 0.64053702
-0.10817596 0.062932931 0.63920927
-0.10721128 0.063053936 0.63889766
-0.10633713 0.063084289 0.63757163
-0.10546656 0.063114196 0.63624674
-0.1045996 0.063143648 0.63492304
-0.10373624 0.063172638 0.63360041
-0.10277876 0.063292742 0.63329118
-0.10182128 0.063412845 0.6329819
-0.10096512 0.063440941 0.63166165
-0.10011255 0.06346859 0.6303426
-0.099263594 0.063495785 0.62902474
-0.098418243 0.063522525 0.62770796
-0.097467959 0.06364172 0.62740099
-0.096517667 0.063760921 0.62709403
-0.095567375 0.063880116 0.62678707
-0.094731018 0.063905731 0.62547326
-0.093782537 0.064024702 0.62516689
-0.092951581 0.064049639 0.62385482
-0.092004888 0.064168386 0.62354904
-0.091058202 0.064287134 0.62324327
-0.090111516 0.064405881 0.6229375
-0.089414276 0.06433475 0.6206249
-0.088597715 0.064357877 0.61931741
-0.087656423 0.064475946 0.61901337
-0.086715147 0.064594015 0.61870933
-0.085773863 0.064712085 0.61840528
-0.084832579 0.064830154 0.61810124
-0.083891287 0.064948224 0.6177972
-0.082950003 0.065066293 0.61749315
-0.082008719 0.065184362 0.61718917
-0.081067428 0.065302432 0.61688513
-0.080126151 0.065420501 0.61658108
-0.079040341 0.065635994 0.61727411
-0.07795094 0.065851934 0.61796588
-0.077006057 0.065970458 0.6176607
-0.076211087 0.06599088 0.61636025
-0.075268 0.066109173 0.61605561
-0.074171409 0.066326015 0.61674511
-0.073381834 0.066345766 0.61544639
-0.072281636 0.066563062 0.6161347
-0.071495667 0.066582352 0.61483717
-0.070552573 0.066700645 0.61453253
-0.069609493 0.066818945 0.61422789
-0.068502098 0.067037143 0.61491388
-0.067557216 0.067155659 0.61460871
-0.066612326 0.067274183 0.61430347
-0.027142677 0.073097251 0.61303526
-0.026177995 0.073218256 0.61272371
-0.025213312 0.073339261 0.6124121
-0.024005128 0.073570102 0.61306554
-0.02279333 0.073801398 0.61371785
-0.021577947 0.074033141 0.61436898
-0.020607866 0.074154824 0.61405563
-0.019387085 0.074387245 0.61470497
-0.017910188 0.074731089 0.61631536
-0.017189022 0.07474225 0.61503869
-0.016215339 0.07486438 0.61472416
-0.1171512 0.06380707 0.65450042
-0.11616493 0.06393078 0.65418184
-0.1152509 0.063964225 0.65284318
-0.11434046 0.063997217 0.65150559
-0.11358529 0.063848317 0.64813137
-0.11268567 0.063879959 0.64679736
-0.11178962 0.06391114 0.64546442
-0.11089719 0.063941874 0.64413273
-0.11000834 0.06397216 0.64280218
-0.10920794 0.063910142 0.64045674
-0.1083281 0.063939296 0.6391291
-0.10736342 0.064060301 0.63881749
-0.10648898 0.064088777 0.63749158
-0.10552609 0.064209558 0.63718057
-0.10475089 0.06414438 0.63484329
-0.10388725 0.064171501 0.63352084
-0.10292976 0.064291596 0.63321161
-0.10197228 0.0644117 0.63290232
-0.1010148 0.064531796 0.63259304
-0.10016015 0.064557798 0.63127357
-0.099309109 0.064583339 0.62995523
-0.098461658 0.064608432 0.62863809
-0.09761782 0.064633064 0.62732202
-0.096777573 0.064657256 0.62600714
-0.095829085 0.064776227 0.62570077
-0.094880596 0.064895198 0.6253944
-0.093932115 0.065014169 0.62508804
-0.093100876 0.065037228 0.62377614
-0.092154182 0.065155976 0.62347037
-0.091086671 0.065371089 0.62416899
-0.090506084 0.065200292 0.62085116
-0.089687437 0.065221764 0.61954319
-0.08874616 0.065339833 0.61923915
-0.087804869 0.065457903 0.61893511
-0.086863585 0.065575972 0.61863106
-0.085922308 0.065694042 0.61832708
-0.084981024 0.065812111 0.61802304
-0.084039725 0.06593018 0.61771899
-0.083098449 0.06604825 0.61741495
-0.082157165 0.066166319 0.61711091
-0.081075236 0.066383243 0.61780494
-0.080274589 0.066402458 0.61650282
-0.07918907 0.066619828 0.61719573
-0.078245983 0.066738121 0.61689109
-0.077302895 0.066856422 0.61658645
-0.076359816 0.066974714 0.61628187
-0.075416729 0.067093007 0.61597723
-0.074320413 0.067311734 0.61666656
-0.073530562 0.0673296 0.61536801
-0.07243064 0.067548774 0.61605614
-0.071644396 0.067566186 0.61475873
-0.070540868 0.067785814 0.61544573
-0.069595993 0.067904331 0.61514056
-0.068651102 0.068022855 0.61483532
-0.067706227 0.068141371 0.61453015
-0.066761337 0.068259895 0.61422497
-0.025365446 0.074345626 0.61233193
-0.024157545 0.074578345 0.61298519
-0.022946032 0.074811518 0.61363739
-0.021730931 0.075045139 0.61428833
-0.020760851 0.075166821 0.61397499
-0.019540353 0.07540112 0.6146242
-0.018064024 0.075748719 0.6162343
-0.017342573 0.075758003 0.61495775
-0.016368892 0.075880133 0.61464322
-0.11730674 0.064835966 0.65441847
-0.11632047 0.064959675 0.65409988
-0.11540616 0.064991243 0.65276134
-0.11442167 0.065114737 0.65244335
-0.11373942 0.064867824 0.64805013
-0.11276214 0.064990409 0.64773446
-0.11194317 0.064926893 0.64538348
-0.11105046 0.064955749 0.64405197
-0.11016133 0.064984158 0.64272153
-0.10936035 0.064918384 0.64037639
-0.10848022 0.064945661 0.63904887
-0.10751555 0.065066665 0.63873732
-0.10664083 0.065093264 0.63741159
-0.10567794 0.065214045 0.63710058
-0.10480861 0.065239966 0.63577658
-0.10394289 0.065265439 0.63445371
-0.10308076 0.065290451 0.63313198
-0.10212328 0.065410554 0.63282275
-0.1011658 0.065530658 0.63251346
-0.10031086 0.065554775 0.63119411
-0.099355184 0.065674648 0.63088542
-0.098505653 0.065698087 0.62956786
-0.097659722 0.06572108 0.62825137
-0.096707635 0.065840498 0.62794387
-0.095867105 0.065862805 0.62662911
-0.095030174 0.065884665 0.62531561
-0.094081692 0.066003636 0.62500924
-0.093133211 0.066122614 0.62470287
-0.09218473 0.066241585 0.6243965
-0.091356792 0.066262312 0.62308586
-0.090532459 0.066282593 0.6217764
-0.089835882 0.066203721 0.61946499
-0.088894598 0.06632179 0.61916095
-0.087953314 0.06643986 0.61885691
-0.08701203 0.066557929 0.61855286
-0.086070746 0.066675998 0.61824882
-0.085129462 0.066794068 0.61794478
-0.084188171 0.066912137 0.61764073
-0.083246887 0.067030206 0.61733669
-0.082305603 0.067148276 0.61703265
-0.081364319 0.067266345 0.6167286
-0.080423035 0.067384414 0.61642456
-0.079481751 0.067502484 0.61612058
-0.078248955 0.067823365 0.61780882
-0.07730408 0.067941882 0.61750364
-0.076508544 0.067958549 0.61620343
-0.075414315 0.068178922 0.61689323
-0.074469425 0.068297446 0.616588
-0.073679291 0.068313435 0.61528957
-0.072579652 0.068534486 0.61597759
-0.071793124 0.06855002 0.61468035
-0.07085003 0.068668321 0.61437571
-0.069906943 0.068786614 0.61407113
-0.068963863 0.068904907 0.61376649
-0.068186335 0.068919308 0.61247212
-0.067245051 0.069037378 0.61216807
-0.025517579 0.075351991 0.6122517
-0.024309961 0.075586587 0.61290485
-0.023098731 0.075821638 0.61355686
-0.021883916 0.076057136 0.61420768
-0.020913836 0.076178819 0.61389434
-0.019943755 0.076300502 0.613581
-0.018469809 0.076651625 0.61519134
-0.017496126 0.076773755 0.61487681
-0.016522443 0.076895893 0.61456233
-0.11746228 0.065864861 0.65433645
-0.11647601 0.065988578 0.65401787
-0.11548973 0.066112287 0.65369934
-0.11457692 0.066141754 0.65236151
-0.11389353 0.065887339 0.64796889
-0.11291625 0.066009916 0.64765322
-0.1121756 0.065847717 0.64428508
-0.11128438 0.06587448 0.64295423
-0.11031431 0.065996155 0.64264089
-0.10934424 0.066117838 0.64232761
-0.10863236 0.065952025 0.63896871
-0.10766768 0.06607303 0.63865709
-0.10679267 0.066097751 0.63733155
-0.10592125 0.066122025 0.63600713
-0.10505345 0.066145845 0.63468385
-0.10418924 0.06616921 0.6333617
-0.10323176 0.066289306 0.63305241
-0.10227428 0.066409409 0.63274312
-0.10131679 0.066529512 0.63243389
-0.10035931 0.066649608 0.6321246
-0.099505901 0.066671625 0.63080597
-0.098550208 0.066791505 0.63049728
-0.09770219 0.066812836 0.62918043
-0.096857779 0.066833727 0.62786472
-0.095905699 0.066953145 0.62755722
-0.095066689 0.066973351 0.62624317
-0.09423127 0.06699311 0.62493038
-0.093282789 0.067112081 0.62462401
-0.092334308 0.067231052 0.62431765
-0.091506086 0.067249902 0.62300718
-0.090681471 0.067268305 0.6216979
-0.089984328 0.067185685 0.61938673
-0.089043044 0.067303747 0.61908269
-0.088101752 0.067421824 0.61877865
-0.087160476 0.067539886 0.6184746
-0.086219192 0.067657955 0.61817056
-0.085277908 0.067776024 0.61786652
-0.084336616 0.067894094 0.61756247
-0.083395332 0.068012163 0.61725849
-0.082315773 0.068232618 0.61795276
-0.081372686 0.068350911 0.61764818
-0.08057148 0.068366371 0.61634636
-0.079630196 0.06848444 0.61604232
-0.078397967 0.068809077 0.61773026
-0.077453092 0.068927594 0.61742508
-0.076657265 0.068942383 0.61612505
-0.075563326 0.069164634 0.61681467
-0.074618436 0.069283158 0.6165095
-0.073828019 0.069297269 0.61521119
-0.072884925 0.069415562 0.61490661
-0.071941845 0.069533855 0.61460197
-0.070998758 0.069652155 0.61429733
-0.070217341 0.069665134 0.61300194
-0.069112591 0.069888741 0.61368811
-0.068334781 0.069901273 0.61239386
-0.067393497 0.070019335 0.61208981
-0.025669711 0.076358356 0.61217153
-0.024219714 0.076710306 0.61378914
-0.023006983 0.076947458 0.61444038
-0.022036901 0.077069141 0.61412704
-0.020818772 0.077306964 0.61477655
-0.02009674 0.077312499 0.61350036
-0.01862336 0.077667378 0.6151104
-0.017903127 0.077672683 0.6138348
-0.016931245 0.077794597 0.61352086
-0.11761782 0.066893756 0.6542545
-0.11663155 0.067017473 0.65393591
-0.11571667 0.067045286 0.65259767
-0.11480538 0.067072637 0.65126055
-0.11382268 0.0671959 0.65094316
-0.11307038 0.067029431 0.64757198
-0.11225028 0.066958398 0.64522159
-0.111357 0.066983499 0.64389038
-0.11038511 0.067105412 0.64357644
-0.10949722 0.067129835 0.64224696
-0.1086987 0.067056097 0.63990355
-0.10781982 0.067079395 0.63857692
-0.10694452 0.067102239 0.6372515
-0.10598164 0.06722302 0.63694048
-0.10511175 0.067245185 0.63561678
-0.10424545 0.067266904 0.63429427
-0.10328615 0.067387231 0.63398439
-0.10242527 0.067408264 0.63266355
-0.1014678 0.067528367 0.63235426
-0.10051031 0.06764847 0.63204503
-0.099656612 0.067668602 0.63072658
-0.098700918 0.067788482 0.63041788
-0.097852625 0.067807943 0.62910116
-0.096898742 0.067927592 0.62879306
-0.096055843 0.067946367 0.62747806
-0.095216557 0.067964695 0.6261642
-0.094380848 0.067982577 0.62485152
-0.093432367 0.068101548 0.62454516
-0.092483886 0.068220519 0.62423885
-0.091655381 0.068237498 0.6229285
-0.090708695 0.068356238 0.62262273
-0.090009183 0.068270095 0.62031132
-0.089066096 0.068388388 0.62000674
-0.088250197 0.06840378 0.61870039
-0.087308913 0.06852185 0.6183964
-0.086367637 0.068639912 0.61809236
-0.085426353 0.068757981 0.61778831
-0.084485054 0.068876058 0.61748427
-0.083543777 0.06899412 0.61718023
-0.082602493 0.069112189 0.61687618
-0.081661202 0.069230258 0.61657214
-0.080719918 0.069348328 0.6162681
-0.079635248 0.069571339 0.61696053
-0.078692161 0.069689631 0.61665589
-0.077749081 0.069807924 0.61635131
-0.076805994 0.069926217 0.61604667
-0.075862914 0.070044518 0.61574203
-0.074919827 0.07016281 0.61543745
-0.07397674 0.070281103 0.61513281
-0.073033653 0.070399404 0.61482817
-0.072248355 0.070410952 0.61353177
-0.071307071 0.070529021 0.61322773
-0.070365787 0.070647091 0.61292368
-0.069424503 0.07076516 0.61261964
-0.068483219 0.070883229 0.6123156
-0.067541942 0.071001299 0.61201161
-0.066937797 0.070903182 0.60973102
-0.066170491 0.07091248 0.60844046
-0.065234601 0.071029879 0.60813814
-0.052988898 0.071783379 0.59479821
-0.052069206 0.071898744 0.59450114
-0.024372414 0.077720426 0.61370867
-0.023404133 0.077841885 0.61339593
-0.022189884 0.078081138 0.61404639
-0.021219803 0.078202814 0.61373305
-0.020249723 0.078324497 0.61341977
-0.019279642 0.07844618 0.61310643
-0.01830956 0.078567863 0.61279309
-0.017339479 0.078689545 0.61247975
-0.11692569 0.06785126 0.65181369
-0.11587192 0.068072304 0.65251583
-0.11488743 0.06819579 0.65219784
-0.11412708 0.068024583 0.64882481
-0.11314798 0.068147391 0.64850855
-0.11240382 0.067974158 0.64514071
-0.11151026 0.067997381 0.64380962
-0.11062028 0.06802015 0.64247966
-0.1097339 0.068042479 0.64115089
-0.10876561 0.068163931 0.64083809
-0.10797195 0.06808576 0.63849676
-0.10700727 0.068206765 0.63818514
-0.10613348 0.068227507 0.63686043
-0.10526332 0.068247795 0.63553691
-0.10439673 0.068267636 0.63421452
-0.10353375 0.068287022 0.63289326
-0.10257627 0.068407118 0.63258398
-0.10161879 0.068527222 0.63227469
-0.1006613 0.068647325 0.63196546
-0.099807329 0.068665579 0.63064712
-0.098851636 0.068785459 0.63033843
-0.098003052 0.068803042 0.62902188
-0.097049177 0.068922691 0.62871373
-0.096205994 0.068939596 0.62739891
-0.095253907 0.069059014 0.62709141
-0.094530426 0.068972044 0.62477273
-0.093581945 0.069091015 0.62446636
-0.092633463 0.069209985 0.62415999
-0.091684982 0.069328956 0.62385362
-0.09085799 0.069343835 0.62254405
-0.090157904 0.069253929 0.62023294
-0.089214824 0.069372222 0.61992836
-0.088398643 0.069385737 0.61862218
-0.087328658 0.069608815 0.61931908
-0.086516075 0.069621876 0.6180141
-0.085574791 0.069739938 0.61771005
-0.084633499 0.069858015 0.61740601
-0.083692215 0.069976084 0.61710197
-0.082750931 0.070094146 0.61679792
-0.081809647 0.070212215 0.61649388
-0.080868363 0.070330285 0.6161899
-0.079927079 0.070448354 0.61588585
-0.078840889 0.070673466 0.61657751
-0.078044511 0.070684493 0.61527777
-0.077103227 0.070802562 0.61497372
-0.076161943 0.070920631 0.61466968
-0.07491646 0.071254581 0.61635238
-0.074125469 0.071264938 0.61505443
-0.073182382 0.071383238 0.61474979
-0.0723968 0.071392909 0.61345351
-0.071455516 0.071510978 0.61314946
-0.070514224 0.071629047 0.61284548
-0.069572948 0.071747117 0.61254144
-0.068796352 0.07175567 0.61124808
-0.068023361 0.071763769 0.60995597
-0.067253977 0.071771421 0.60866499
-0.066318087 0.071888812 0.60836267
-0.065382197 0.072006203 0.60806036
-0.055699505 0.072509855 0.5965929
-0.054778021 0.072625443 0.5962953
-0.053856529 0.072741032 0.59599763
-0.053133935 0.072742805 0.59472173
-0.052214243 0.07285817 0.59442472
-0.051294558 0.072973527 0.59412766
-0.050374869 0.073088884 0.59383059
-0.024525113 0.078730546 0.61362821
-0.023312951 0.078971453 0.61427915
-0.022342868 0.079093136 0.61396581
-0.021125307 0.079334721 0.61461496
-0.020402707 0.079336494 0.61333913
-0.019432625 0.079458177 0.61302578
-0.018462542 0.07957986 0.61271244
-0.017492462 0.079701543 0.6123991
-0.11708066 0.068876401 0.65173203
-0.11609799 0.068999663 0.65141463
-0.11511532 0.069122918 0.65109718
-0.11413263 0.06924618 0.65077978
-0.11322618 0.069269113 0.64944476
-0.11255737 0.06898991 0.64505976
-0.11166354 0.069011256 0.64372879
-0.11077327 0.069032155 0.64239901
-0.10980318 0.06915383 0.64208567
-0.10891831 0.069174051 0.64075762
-0.10812408 0.069092125 0.63841659
-0.1071594 0.06921313 0.63810498
-0.10628533 0.069231994 0.63678038
-0.10541487 0.069250412 0.63545704
-0.10454801 0.069268368 0.63413477
-0.10358872 0.069388703 0.63382494
-0.10272727 0.06940598 0.6325044
-0.10176979 0.069526076 0.63219512
-0.1008123 0.06964618 0.63188583
-0.09995804 0.069662556 0.63056767
-0.099002346 0.069782436 0.63025898
-0.098046675 0.069902308 0.62995028
-0.097199604 0.069917791 0.62863445
-0.096245721 0.070037439 0.62832636
-0.095404059 0.070052236 0.62701225
-0.094680004 0.069961511 0.62469387
-0.093731523 0.070080481 0.6243875
-0.092783049 0.070199452 0.62408113
-0.09183456 0.070318423 0.62377477
-0.091007285 0.070331424 0.62246531
-0.090306632 0.070237763 0.62015456
-0.089363545 0.070356056 0.61984992
-0.088420466 0.070474356 0.61954534
-0.087477379 0.070592649 0.6192407
-0.08666452 0.070603833 0.61793584
-0.085723236 0.070721902 0.61763179
-0.084781945 0.070839971 0.61732775
-0.083840661 0.070958041 0.61702377
-0.082899377 0.07107611 0.61671972
-0.081958085 0.071194179 0.61641568
-0.081016809 0.071312249 0.61611164
-0.080075525 0.071430311 0.61580759
-0.079134233 0.07154838 0.61550355
-0.078192957 0.071666449 0.61519951
-0.077251673 0.071784519 0.61489546
-0.075710326 0.07234095 0.61856663
-0.074761845 0.072459921 0.61826026
-0.074427813 0.072138727 0.61398339
-0.073486522 0.072256796 0.61367935
-0.072545245 0.072374865 0.61337531
-0.071603961 0.072492935 0.61307126
-0.07066267 0.072611004 0.61276722
-0.069721386 0.072729073 0.61246318
-0.068944514 0.072735749 0.61116999
-0.068171233 0.07274197 0.609878
-0.067401566 0.072747745 0.60858715
-0.066465676 0.072865136 0.60828489
-0.065701403 0.072870225 0.60699576
-0.064767316 0.072987393 0.60669404
-0.058421485 0.07323873 0.59839082
-0.057498194 0.073354542 0.59809262
-0.056574907 0.073470354 0.59779435
-0.055844825 0.073471159 0.59651631
-0.054923341 0.073586747 0.59621871
-0.054001853 0.073702335 0.59592104
-0.053080365 0.073817916 0.59562337
-0.052158877 0.073933505 0.59532577
-0.051237389 0.074049093 0.5950281
-0.050315902 0.074164674 0.5947305
-0.024677815 0.079740666 0.61354768
-0.023465935 0.07998345 0.61419851
-0.022495853 0.080105133 0.61388516
-0.021278575 0.080348596 0.6145342
-0.020555692 0.080348499 0.61325848
-0.019585609 0.080470175 0.61294514
-0.018615527 0.080591857 0.6126318
-0.11625297 0.070024803 0.65133291
-0.11527029 0.070148066 0.65101552
-0.11436173 0.070169337 0.64968008
-0.11338086 0.070292376 0.64936322
-0.11255547 0.070210539 0.64701265
-0.1118168 0.070025131 0.64364803
-0.11084491 0.070147038 0.64333409
-0.10995618 0.070165828 0.64200503
-0.10907102 0.070184171 0.64067715
-0.10818947 0.07020206 0.63935035
-0.10731153 0.070219494 0.63802481
-0.10634685 0.070340499 0.63771319
-0.10556644 0.070253022 0.63537711
-0.10460535 0.070373572 0.63506669
-0.10374 0.070389435 0.63374519
-0.10287827 0.070404835 0.63242477
-0.10192078 0.070524931 0.63211554
-0.10096329 0.070645034 0.63180625
-0.10000581 0.070765138 0.63149697
-0.099048339 0.070885234 0.63118774
-0.098197393 0.070899285 0.62987089
-0.097241692 0.071019165 0.6295622
-0.096396148 0.071032539 0.62824708
-0.095554203 0.071045466 0.62693316
-0.094715856 0.071057931 0.62562031
-0.0938811 0.071069948 0.62430865
-0.092932627 0.071188919 0.62400234
-0.091984138 0.07130789 0.62369597
-0.091035657 0.071426868 0.6233896
-0.090332635 0.071329676 0.62107855
-0.089512274 0.07133989 0.61977154
-0.088569194 0.071458191 0.61946696
-0.087626107 0.071576484 0.61916232
-0.08668302 0.071694776 0.61885768
-0.085739933 0.071813077 0.6185531
-0.084796853 0.07193137 0.61824846
-0.083989106 0.071939997 0.61694551
-0.083047822 0.072058067 0.61664146
-0.082106531 0.072176136 0.61633742
-0.081165247 0.072294205 0.61603338
-0.08022397 0.072412275 0.61572933
-0.079282679 0.072530344 0.61542529
-0.078341395 0.072648413 0.6151213
-0.077400118 0.072766475 0.61481726
-0.076458827 0.072884545 0.61451322
-0.075517535 0.073002614 0.61420918
-0.074576259 0.073120683 0.61390513
-0.073634967 0.073238753 0.61360109
-0.072693683 0.073356822 0.61329705
-0.071752399 0.073474891 0.612993
-0.070971638 0.073480144 0.61169881
-0.070032157 0.073597983 0.61139536
-0.06925679 0.073602557 0.61010295
-0.068485036 0.073606677 0.60881168
-0.067549154 0.073724069 0.60850936
-0.066782787 0.073727511 0.60721987
-0.065848708 0.073844679 0.60691816
-0.064914621 0.073961839 0.60661644
-0.063980535 0.074079007 0.60631472
-0.063046448 0.074196175 0.606013
-0.061154827 0.073970012 0.60019189
-0.060413659 0.073970295 0.59891051
-0.059490375 0.074086107 0.59861231
-0.058567088 0.074201919 0.59831411
-0.057643801 0.074317724 0.59801584
-0.056720514 0.074433535 0.59771764
-0.055990148 0.074432462 0.59643972
-0.05487394 0.074665159 0.59712118
-0.053950652 0.074780971 0.59682298
-0.053027365 0.074896783 0.59652472
-0.052104082 0.075012594 0.59622651
-0.051180791 0.075128406 0.59592831
-0.050053786 0.075362459 0.59660625
-0.049128696 0.075478494 0.59630746
-0.04820361 0.07559453 0.59600866
-0.046651155 0.076067321 0.59863323
-0.045720667 0.076184042 0.5983327
-0.11640794 0.071049944 0.65125126
-0.11542526 0.071173206 0.65093386
-0.11451642 0.071192607 0.64959854
-0.11345989 0.071419731 0.65029901
-0.11263212 0.071334362 0.64794815
-0.1118908 0.071143545 0.6445834
-0.11091712 0.071265683 0.64426887
-0.1100263 0.071282819 0.64293939
-0.10922372 0.071194299 0.64059669
-0.10842834 0.071104862 0.63825619
-0.10746367 0.071225859 0.63794458
-0.10649899 0.071346864 0.63763303
-0.10562614 0.07136175 0.63630933
-0.10475692 0.071376182 0.63498682
-0.10389128 0.071390167 0.63366544
-0.10293201 0.071510494 0.63335562
-0.10207178 0.071523786 0.63203597
-0.1011143 0.071643889 0.63172668
-0.10015681 0.071763992 0.63141739
-0.09919934 0.071884088 0.63110816
-0.098241843 0.072004192 0.63079888
-0.097392403 0.072016142 0.62948275
-0.096436732 0.072136015 0.62917405
-0.095592692 0.072147287 0.62785965
-0.094638817 0.072266936 0.62755156
-0.093915433 0.072168469 0.62523437
-0.093082204 0.072178386 0.62392348
-0.092133716 0.072297364 0.62361711
-0.091185234 0.072416335 0.62331074
-0.090359196 0.072425351 0.62200218
-0.089412503 0.072544098 0.62169641
-0.088465825 0.072662838 0.62139064
-0.087519139 0.072781585 0.62108481
-0.086702101 0.072789475 0.61977917
-0.085757218 0.072907992 0.61947399
-0.084945582 0.072915204 0.61817008
-0.084137544 0.072921954 0.61686724
-0.08319626 0.073040023 0.6165632
-0.082254976 0.073158093 0.61625916
-0.081313692 0.073276162 0.61595517
-0.080372408 0.073394231 0.61565113
-0.079431124 0.073512301 0.61534709
-0.078635685 0.073517472 0.61404842
-0.077548556 0.07374844 0.614739
-0.076607272 0.073866509 0.61443496
-0.075665981 0.073984578 0.61413091
-0.074724697 0.07410264 0.61382687
-0.073783413 0.07422071 0.61352283
-0.072842129 0.074338779 0.61321878
-0.072059289 0.074342377 0.61192417
-0.0711198 0.074460223 0.61162072
-0.070342354 0.074463144 0.6103279
-0.069404669 0.074580759 0.61002499
-0.068632625 0.074583001 0.60873389
-0.06769675 0.074700393 0.60843158
-0.0669301 0.074701957 0.60714221
-0.065996014 0.074819125 0.60684049
-0.065061927 0.074936286 0.60653877
-0.064302489 0.074936941 0.60525167
-0.06354665 0.074937157 0.60396576
-0.062616162 0.075053871 0.60366523
-0.062045753 0.074936219 0.60139751
-0.061300717 0.074935071 0.600115
-0.060559265 0.074933477 0.5988338
-0.059635982 0.075049289 0.59853554
-0.058712691 0.0751651 0.59823734
-0.057789404 0.075280912 0.59793913
-0.056866117 0.075396724 0.59764087
-0.05594283 0.075512536 0.59734267
-0.055019546 0.07562834 0.59704447
-0.054096255 0.075744152 0.59674621
-0.053172968 0.075859964 0.596448
-0.052249685 0.075975776 0.59614974
-0.051124763 0.076211482 0.59682816
-0.049996223 0.076447643 0.59750545
-0.049274586 0.076443553 0.59623057
-0.047935415 0.076800734 0.59788156
-0.046797894 0.07703802 0.59855586
-0.04586741 0.077154733 0.59825534
-0.11361486 0.072444871 0.65021735
-0.1128637 0.072249554 0.64685017
-0.11204436 0.072159298 0.64450246
-0.11107067 0.072281435 0.64418793
-0.11017957 0.072296694 0.64285862
-0.10937642 0.072204418 0.64051616
-0.10858048 0.072111227 0.63817602
-0.1076158 0.072232231 0.63786441
-0.10665112 0.072353229 0.6375528
-0.10577799 0.072366238 0.63622928
-0.10481511 0.072487019 0.63591826
-0.10394739 0.07249935 0.63459647
-0.10308329 0.072511226 0.63327587
-0.10222278 0.07252264 0.63195634
-0.10126529 0.072642744 0.63164711
-0.10030781 0.072762847 0.63133782
-0.099350341 0.072882943 0.63102853
-0.098498814 0.072893247 0.62971199
-0.097650893 0.072903089 0.62839663
-0.096806578 0.072912484 0.62708241
-0.095965862 0.072921425 0.62576926
-0.095128737 0.072929911 0.62445736
-0.094295226 0.07293795 0.62314659
-0.093465298 0.072945543 0.62183702
-0.092164725 0.07339821 0.62454146
-0.091334812 0.073405802 0.62323189
-0.090386324 0.073524773 0.62292552
-0.089561798 0.073531687 0.62161773
-0.088740878 0.073538147 0.62031102
-0.087795995 0.073656663 0.62000585
-0.086851105 0.073775187 0.61970067
-0.08590623 0.073893704 0.61939543
-0.08509431 0.073899038 0.6180917
-0.084285989 0.073903911 0.61678904
-0.083344705 0.07402198 0.616485
-0.082403414 0.07414005 0.61618096
-0.081462137 0.074258119 0.61587691
-0.080520853 0.074376188 0.61557287
-0.079579562 0.074494258 0.61526883
-0.078638285 0.074612327 0.61496478
-0.077697001 0.074730396 0.61466074
-0.076904871 0.074733242 0.61336339
-0.075814426 0.074966535 0.61405265
-0.074873142 0.075084604 0.61374867
-0.07393185 0.075202674 0.61344463
-0.073146932 0.075204618 0.61214954
-0.072207451 0.075322457 0.61184609
-0.071427919 0.075323723 0.61055279
-0.070490226 0.075441346 0.61024994
-0.069552541 0.07555896 0.60994709
-0.068780214 0.075559326 0.60865611
-0.067844339 0.075676717 0.60835379
-0.067077406 0.075676404 0.60706455
-0.066143326 0.075793572 0.60676283
-0.06520924 0.07591074 0.60646117
-0.064449511 0.075909518 0.60517418
-0.063693389 0.075907849 0.60388845
-0.062940858 0.075905725 0.60260385
-0.06201217 0.076022215 0.60230386
-0.06126504 0.076019421 0.60102105
-0.060521517 0.076016165 0.59973931
-0.059596431 0.076132208 0.59944052
-0.058858298 0.076128282 0.59816056
-0.057935011 0.076244093 0.59786236
-0.057011724 0.076359905 0.59756416
-0.056088433 0.076475717 0.5972659
-0.055165149 0.076591529 0.5969677
-0.054241862 0.076707341 0.5966695
-0.053318575 0.076823145 0.59637123
-0.052195735 0.077060506 0.59705007
-0.051270649 0.077176541 0.59675127
-0.050142396 0.07741458 0.59742844
-0.04921551 0.077530839 0.59712905
-0.048081871 0.077769548 0.59780437
-0.046944633 0.078008711 0.59847856
-0.045803796 0.078248322 0.59915155
-0.044871513 0.078365259 0.59885043
-0.11392 0.073254324 0.64810163
-0.11309469 0.073160999 0.64575249
-0.11219791 0.07317505 0.64442152
-0.11122423 0.073297188 0.64410704
-0.11033283 0.073310576 0.64277786
-0.10952912 0.073214538 0.6404357
-0.10873261 0.073117591 0.6380958
-0.10776793 0.073238596 0.63778424
-0.10680325 0.073359594 0.63747263
-0.10592984 0.073370725 0.63614923
-0.10496696 0.073491506 0.63583821
-0.10400409 0.07361228 0.63552725
-0.10313789 0.07362251 0.63420618
-0.10227528 0.073632285 0.63288629
-0.10141629 0.073641598 0.63156748
-0.10045881 0.073761702 0.63125825
-0.099501334 0.073881805 0.63094896
-0.098755203 0.07377854 0.62862545
-0.09780132 0.073898189 0.6283173
-0.096956722 0.073905706 0.62700325
-0.096004643 0.074025132 0.62669569
-0.095278315 0.073919378 0.6243785
-0.094329834 0.074038357 0.62407213
-0.09338136 0.074157327 0.62376577
-0.092432871 0.074276298 0.62345946
-0.09148439 0.074395269 0.62315309
-0.090535901 0.07451424 0.62284672
-0.089711092 0.074519277 0.621539
-0.088764414 0.074638024 0.62123322
-0.087817729 0.074756771 0.62092745
-0.08687105 0.074875511 0.62062168
-0.086055242 0.074879423 0.61931688
-0.085243039 0.074882872 0.61801326
-0.084434435 0.074885868 0.61671078
-0.083493151 0.075003937 0.61640674
-0.082551859 0.075122006 0.6161027
-0.081610575 0.075240076 0.61579865
-0.080669299 0.075358145 0.61549461
-0.079728007 0.075476214 0.61519057
-0.078786723 0.075594284 0.61488658
-0.077992514 0.075595476 0.61358875
-0.077053025 0.075713322 0.6132853
-0.075962864 0.075948492 0.61397445
-0.075021587 0.076066561 0.61367041
-0.074234575 0.076066852 0.6123749
-0.073295087 0.076184697 0.61207145
-0.072513476 0.07618431 0.61077774
-0.071575798 0.076301932 0.61047488
-0.070799582 0.076300867 0.60918289
-0.069863699 0.076418258 0.60888058
-0.06892781 0.07653565 0.60857826
-0.067991935 0.076653041 0.60827601
-0.067224711 0.07665085 0.60698694
-0.066290632 0.076768018 0.60668522
-0.065701097 0.076645114 0.6044122
-0.064770617 0.076761827 0.60411167
-0.063840128 0.07687854 0.60381109
-0.063087314 0.076874547 0.60252666
-0.062158626 0.076991029 0.60222667
-0.061411213 0.076986358 0.60094404
-0.060484324 0.077102624 0.60064465
-0.059742317 0.077097267 0.59936363
-0.05881723 0.077213302 0.59906483
-0.058080614 0.077207275 0.59778565
-0.057157326 0.077323087 0.59748739
-0.056234039 0.077438898 0.59718919
-0.055310756 0.07755471 0.59689093
-0.054387465 0.077670522 0.59659272
-0.053266712 0.077909522 0.59727198
-0.052341625 0.078025565 0.59697318
-0.051215459 0.07826525 0.59765077
-0.050288569 0.078381516 0.59735137
-0.049361683 0.078497775 0.59705198
-0.048228327 0.078738362 0.59772718
-0.047091376 0.078979403 0.59840119
-0.046160888 0.079096116 0.59810066
-0.045230404 0.079212829 0.59780008
-0.044299915 0.079329543 0.59749955
-0.036472313 0.081295647 0.60538399
-0.035523828 0.081414625 0.60507762
-0.034575347 0.081533596 0.60477126
-0.1140744 0.07427571 0.64802027
-0.11324853 0.074178629 0.64567143
-0.11227305 0.074300982 0.64535636
-0.11129757 0.074423343 0.64504129
-0.11048611 0.074324451 0.64269704
-0.10968181 0.074224658 0.64035523
-0.10888474 0.074123956 0.63801563
-0.10792006 0.074244961 0.63770401
-0.10695539 0.074365966 0.63739246
-0.1059907 0.074486971 0.63708085
-0.10502601 0.074607976 0.63676924
-0.10415594 0.074616767 0.6354472
-0.10328946 0.07462512 0.63412631
-0.10232837 0.07474567 0.63381588
-0.10146728 0.074753344 0.63249671
-0.10060981 0.074760556 0.63117862
-0.099652335 0.07488066 0.63086939
-0.098694839 0.075000763 0.6305601
-0.097951755 0.074893288 0.62823802
-0.096997872 0.075012945 0.62792993
-0.096154787 0.075018354 0.6266166
-0.095202699 0.075137779 0.62630904
-0.094365016 0.07514251 0.62499738
-0.093414739 0.075261705 0.62469047
-0.092582449 0.075265765 0.6233806
-0.091633968 0.075384736 0.62307423
-0.090685479 0.075503707 0.62276787
-0.089736991 0.075622678 0.6224615
-0.088788509 0.075741656 0.62215513
-0.087840028 0.075860627 0.62184876
-0.087020345 0.075863108 0.620543
-0.086073652 0.075981848 0.62023723
-0.08539176 0.075866707 0.61793488
-0.084582873 0.075867824 0.61663252
-0.083641589 0.075985894 0.61632848
-0.082700305 0.076103963 0.61602449
-0.081759021 0.076222032 0.61572045
-0.080817737 0.076340102 0.61541641
-0.079876453 0.076458171 0.61511236
-0.078935169 0.07657624 0.61480832
-0.077993885 0.07669431 0.61450428
-0.077052601 0.076812379 0.61420023
-0.076111309 0.076930448 0.61389619
-0.075170025 0.077048518 0.61359215
-0.074382737 0.077046931 0.61229682
-0.073443249 0.077164777 0.61199337
-0.072503768 0.077282615 0.61168993
-0.07172367 0.077280134 0.61039692
-0.07094717 0.077277191 0.60910511
-0.070011288 0.077394582 0.6088028
-0.069075398 0.077511974 0.60850048
-0.068139523 0.077629365 0.60819823
-0.067372017 0.077625297 0.60690928
-0.066437937 0.077742465 0.60660756
-0.065847836 0.077615805 0.60433483
-0.064917356 0.077732518 0.6040343
-0.063986868 0.077849232 0.60373378
-0.06305638 0.077965945 0.60343319
-0.062305082 0.077959843 0.60214949
-0.061376397 0.078076333 0.60184956
-0.060630497 0.07806956 0.60056758
-0.059703607 0.078185819 0.60026819
-0.05896312 0.078178361 0.59898794
-0.05822622 0.078170456 0.59770888
-0.057302929 0.078286268 0.59741068
-0.056379642 0.07840208 0.59711242
-0.055456359 0.078517891 0.59681422
-0.054337688 0.078758545 0.59749389
-0.053412601 0.078874581 0.59719509
-0.052487515 0.078990623 0.59689629
-0.051562428 0.079106659 0.59659749
-0.050434742 0.079348452 0.5972743
-0.049507856 0.079464719 0.59697491
-0.048374783 0.079707175 0.59764999
-0.047238115 0.079950094 0.59832388
-0.046307627 0.080066808 0.5980233
-0.045377143 0.080183521 0.59772277
-0.044446655 0.080300234 0.59742218
-0.036621891 0.082285114 0.60530519
-0.035447426 0.082532771 0.60596687
-0.034269348 0.08278089 0.6066274
-0.033317264 0.082900316 0.6063199
-0.032133799 0.083149098 0.60697865
-0.031179916 0.083268747 0.60667056
-0.028561795 0.083898164 0.60894799
-0.027602512 0.084018491 0.60863817
-0.11340236 0.075196259 0.64559036
-0.11242688 0.07531862 0.64527529
-0.1114514 0.075440973 0.64496017
-0.11063937 0.075338326 0.64261627
-0.10975099 0.075347506 0.64128852
-0.10895155 0.075243272 0.63894868
-0.10807219 0.075251326 0.63762385
-0.10710752 0.075372331 0.63731229
-0.10614283 0.075493336 0.63700068
-0.10517815 0.075614341 0.63668907
-0.10421347 0.075735338 0.63637745
-0.1033449 0.075742036 0.63505614
-0.10247993 0.07574828 0.63373595
-0.10161857 0.075754076 0.63241696
-0.10065928 0.075874403 0.63210714
-0.099803329 0.075879514 0.63078982
-0.098845832 0.075999618 0.63048053
-0.098102182 0.075888395 0.62815875
-0.097148299 0.076008044 0.62785065
-0.096304931 0.076011576 0.62653744
-0.095352843 0.076131001 0.62622994
-0.094400764 0.076250426 0.62592238
-0.0935646 0.076253049 0.62461144
-0.092732027 0.076255232 0.62330174
-0.091783546 0.076374203 0.62299538
-0.090835057 0.076493181 0.62268901
-0.089886576 0.076612152 0.62238264
-0.088938087 0.076731123 0.62207627
-0.087862894 0.076968238 0.62276977
-0.08729814 0.076732323 0.61946499
-0.086353257 0.076850846 0.61915982
-0.085408375 0.076969363 0.61885464
-0.084597394 0.076968841 0.61755186
-0.083790034 0.07696785 0.61625028
-0.082848743 0.07708592 0.61594623
-0.081907466 0.077203989 0.61564219
-0.080966182 0.077322058 0.61533815
-0.080167808 0.07731995 0.61403948
-0.079228319 0.077437796 0.61373603
-0.078288831 0.077555642 0.61343259
-0.077201039 0.077794336 0.61412197
-0.076259755 0.077912405 0.61381799
-0.075318471 0.078030474 0.61351395
-0.074530892 0.07802701 0.61221874
-0.073591404 0.078144856 0.61191529
-0.07265193 0.078262702 0.61161184
-0.071712434 0.07838054 0.6113084
-0.070933856 0.07837595 0.61001611
-0.070158876 0.078370906 0.60872501
-0.069222987 0.078488305 0.6084227
-0.068287112 0.078605689 0.60812044
-0.067519329 0.078599751 0.60683161
-0.06658525 0.078716911 0.60652995
