121.107605 -113.549728 -716.138428 0.480438 -0.792074 0.376560
121.472977 -112.047005 -712.821289 0.410104 -0.857490 0.310685
121.701271 -109.985001 -707.825500 0.446122 -0.803020 0.395137
121.860367 -107.579445 -702.920410 0.455391 -0.793682 0.403346
77.759651 -116.377777 -693.902100 0.145755 -0.908165 0.392417
83.479019 -115.506042 -694.052490 0.150442 -0.891082 0.428182
88.871292 -114.619377 -694.044312 0.147395 -0.895705 0.419508
94.460449 -113.446693 -694.148560 0.233116 -0.846578 0.478501
95.267189 -111.785698 -691.285889 0.253565 -0.881439 0.398459
99.773300 -112.196785 -694.521118 0.230902 -0.862843 0.449651
105.369362 -110.808716 -694.907227 0.307473 -0.848624 0.430462
99.582458 -109.608215 -689.707886 0.287792 -0.838352 0.462970
104.986053 -108.062660 -690.132141 0.288698 -0.790781 0.539739
110.394180 -109.166710 -695.454773 0.317015 -0.824239 0.469182
115.531723 -107.389427 -696.186829 0.373301 -0.810965 0.450536
118.464577 -107.630310 -699.329041 0.446122 -0.803020 0.395137
110.269798 -106.299004 -690.609985 0.381744 -0.750325 0.539707
115.307884 -104.263863 -691.355652 0.381744 -0.750325 0.539707
100.871376 -106.461090 -685.415710 0.351778 -0.768701 0.534182
104.669029 -104.592720 -685.280762 0.320539 -0.730829 0.602614
99.531860 -102.294632 -679.843384 0.379385 -0.667194 0.641030
104.421738 -100.878784 -681.050903 0.327505 -0.668110 0.668110
110.015114 -102.868912 -686.239136 0.385776 -0.678434 0.625223
114.949142 -101.098114 -687.080933 0.384960 -0.703547 0.597351
109.470261 -99.098946 -681.782166 0.321811 -0.682240 0.656495
114.544395 -97.625122 -682.680908 0.349648 -0.712246 0.608647
73.330666 -101.410881 -674.075867 -0.515169 -0.409493 0.752939
74.501495 -97.645103 -671.175110 -0.450536 -0.424791 0.785220
74.882568 -93.416695 -668.718811 -0.129753 -0.530810 0.837499
79.642609 -93.575958 -666.970520 -0.346740 -0.275001 0.896742
73.589737 -89.050072 -665.770813 0.279019 -0.424593 0.861318
75.085258 -86.389847 -665.195557 0.427370 -0.256422 0.866950
80.708611 -89.282806 -665.669128 -0.485048 -0.101522 0.868575
79.078011 -85.017838 -665.793335 -0.303639 -0.191180 0.933410
83.722115 -93.402397 -665.499084 -0.585900 -0.325500 0.742140
93.226440 -92.427834 -665.893555 0.349648 -0.608647 0.712246
84.495651 -88.654190 -662.911438 -0.676895 -0.130629 0.724396
82.625084 -85.015228 -663.788818 -0.537431 -0.179144 0.824061
91.656219 -88.949631 -662.742554 0.266980 -0.572101 0.775514
98.973305 -98.857117 -676.027710 0.385776 -0.678434 0.625223
103.560318 -97.294121 -676.916321 0.327280 -0.693834 0.641469
98.309601 -95.329330 -671.907532 0.385776 -0.678434 0.625223
103.273605 -93.563095 -672.898621 0.321811 -0.682240 0.656495
109.006035 -95.729538 -677.933289 0.298450 -0.661780 0.687732
113.986961 -94.158562 -678.517212 0.327280 -0.693834 0.641469
108.192291 -92.014359 -673.647217 0.356655 -0.647263 0.673682
113.184532 -90.472893 -674.619690 0.321811 -0.656495 0.682240
115.188606 -88.072563 -673.524475 0.346867 -0.552418 0.757969
97.559059 -91.380203 -667.357117 0.408071 -0.618689 0.671343
102.417458 -89.845108 -668.766479 0.326609 -0.614025 0.718540
96.915535 -87.569618 -663.690491 0.376306 -0.557971 0.739636
101.600311 -86.044266 -665.049866 0.384960 -0.597351 0.703547
107.675224 -88.277046 -669.799866 0.346867 -0.552418 0.757969
109.996010 -84.784950 -668.449280 0.409493 -0.515169 0.752939
112.339813 -86.532906 -670.949341 0.381744 -0.539707 0.750325
113.781586 -85.062607 -670.685364 0.403894 -0.534182 0.742643
106.526985 -84.332741 -666.435059 0.371825 -0.500041 0.782116
108.007607 -82.119553 -665.921143 0.420903 -0.420903 0.803543
112.590431 -80.696602 -667.609680 0.411889 -0.361963 0.836260
119.566185 -105.440094 -696.600769 0.436828 -0.754520 0.489776
121.882362 -104.883179 -697.941833 0.489776 -0.754520 0.436828
120.065468 -102.500984 -692.610352 0.460726 -0.723998 0.513380
121.759010 -101.909142 -693.240967 0.436828 -0.754520 0.489776
126.245377 -99.850288 -694.082947 0.428210 -0.765588 0.480115
119.885880 -99.124268 -687.866516 0.381744 -0.750325 0.539707
121.429726 -98.629204 -688.260620 0.374295 -0.761496 0.529175
126.545631 -96.579514 -689.456665 0.460726 -0.723998 0.513380
119.578682 -96.016090 -683.619202 0.377836 -0.716586 0.586297
121.529251 -95.082588 -683.726135 0.378867 -0.692411 0.614025
126.014870 -93.590446 -685.083252 0.464606 -0.676998 0.570802
118.874908 -92.514069 -679.196899 0.408071 -0.671343 0.618689
120.317711 -91.965744 -679.504944 0.385776 -0.678434 0.625223
125.178383 -89.916077 -680.562744 0.437134 -0.649078 0.622585
117.396080 -89.414070 -675.618896 0.349648 -0.608647 0.712246
119.749741 -87.801460 -675.418274 0.348481 -0.580802 0.735683
124.508934 -85.888893 -676.471497 0.443403 -0.577767 0.685259
118.591042 -83.328697 -671.755798 0.317015 -0.469182 0.824239
123.675758 -81.669884 -673.223938 0.425355 -0.399576 0.812042
117.526871 -79.242233 -669.222534 0.382658 -0.357970 0.851722
122.284691 -77.954872 -670.781311 0.390843 -0.365627 0.844724
125.493202 -78.780975 -672.813110 0.480438 -0.376560 0.792074
118.301598 -76.309486 -668.386230 0.320815 -0.320815 0.891154
123.637955 -75.067650 -670.269958 0.469182 -0.317015 0.824239
127.881477 -80.405533 -675.136658 0.539707 -0.381744 0.750325
127.797028 -73.358070 -672.196960 0.539739 -0.288698 0.790781
30.039612 -93.203300 -658.096680 0.251088 -0.418480 0.872829
35.345833 -91.854652 -659.464355 0.415530 -0.339979 0.843652
37.114594 -88.118225 -659.104370 0.478501 -0.233116 0.846578
28.729376 -88.801491 -656.104187 0.238837 -0.307076 0.921228
29.388214 -85.816795 -655.404663 0.263499 -0.263499 0.927975
33.803688 -87.679100 -657.275085 0.375406 -0.278527 0.884021
34.685989 -84.419716 -656.873230 0.364051 -0.223128 0.904257
39.520924 -90.800369 -661.245300 0.453416 -0.281853 0.845560
41.041439 -87.227104 -661.062195 0.475645 -0.256117 0.841526
43.860111 -90.291489 -663.129028 0.384163 -0.221185 0.896380
45.523880 -86.235382 -662.917297 0.323846 -0.189840 0.926868
39.315662 -83.258934 -659.018677 0.489659 -0.203029 0.847946
43.506363 -81.638817 -661.057312 0.475645 -0.256117 0.841526
46.381725 -82.103386 -662.418945 0.303639 -0.191180 0.933410
40.807140 -79.987892 -658.856384 0.485569 -0.261460 0.834183
45.108990 -78.409813 -660.872925 0.504255 -0.258277 0.824027
28.075758 -81.512222 -654.186218 0.201050 -0.179887 0.962923
33.398701 -80.524872 -655.406372 0.329142 -0.215645 0.919327
27.998629 -77.431282 -653.762390 0.095185 -0.025960 0.995121
33.787239 -76.882988 -654.854492 0.246035 -0.181852 0.952049
32.667011 -72.979965 -653.832520 0.088926 -0.187733 0.978186
37.580772 -79.315826 -656.958801 0.392329 -0.225887 0.891657
39.015358 -75.918823 -656.622498 0.453416 -0.281853 0.845560
43.974072 -74.261833 -658.397461 0.411889 -0.361963 0.836260
45.552155 -71.463287 -657.849365 0.409493 -0.515169 0.752939
37.580502 -71.351913 -654.070190 0.290349 -0.568075 0.770057
41.915447 -69.895142 -654.676453 0.327280 -0.693834 0.641469
43.867611 -69.011658 -654.742737 0.320539 -0.730829 0.602614
50.843891 -84.819313 -664.160339 0.307076 -0.238837 0.921228
54.661572 -83.512306 -665.481567 0.445255 -0.343483 0.826902
51.463688 -81.594620 -663.588440 0.281718 -0.214106 0.935304
56.371403 -80.315552 -665.290344 0.281718 -0.214106 0.935304
49.862450 -77.288239 -662.777161 0.203328 -0.048412 0.977913
50.746864 -73.657814 -662.640503 0.420893 -0.228485 0.877863
54.780090 -76.873466 -664.105530 0.372193 -0.074439 0.925166
55.262695 -72.164825 -664.073792 0.240262 0.009610 0.970660
63.510113 -83.792763 -663.954712 -0.392417 -0.145755 0.908165
67.986877 -82.921928 -663.266174 -0.008379 -0.075412 0.997117
61.512619 -79.436989 -665.463989 -0.107110 0.146058 0.983460
62.027008 -75.389626 -665.870728 0.159647 0.046955 0.986057
67.497887 -77.848686 -664.062744 0.074439 0.372193 0.925166
64.052269 -75.030029 -666.022766 -0.528622 0.528622 0.664166
59.578930 -75.753601 -665.590027 0.184449 0.067955 0.980490
60.548130 -71.517502 -665.773865 0.184449 -0.067955 0.980490
66.132584 -76.571686 -664.491760 0.075930 0.379651 0.922009
66.310600 -71.330223 -666.676758 0.096987 0.334068 0.937546
47.189453 -73.173492 -659.841309 0.544637 -0.411799 0.730611
49.947632 -70.401413 -659.982483 0.530183 -0.557372 0.638939
53.713184 -68.091133 -661.352600 0.598618 -0.651829 0.465592
49.028008 -67.335381 -655.785461 0.376560 -0.792074 0.480438
53.851505 -65.003540 -656.563538 0.519538 -0.732682 0.439609
57.405483 -62.734886 -657.525146 0.567215 -0.699126 0.435305
60.410370 -67.363197 -665.648621 0.171716 0.009038 0.985105
66.105713 -66.670708 -667.487671 0.350759 -0.192352 0.916498
56.111668 -66.755295 -662.679749 0.605954 -0.659817 0.444366
59.999767 -64.426476 -664.108521 0.436038 -0.834701 0.336372
64.962273 -62.717419 -664.816528 0.356655 -0.673682 0.647263
60.154339 -61.642616 -659.193176 0.519538 -0.732682 0.439609
64.617683 -59.549484 -659.587769 0.329142 -0.919327 0.215645
32.054062 -68.113708 -640.915955 0.228436 -0.946379 0.228436
32.336205 -68.280449 -648.121338 0.248969 -0.965999 -0.069711
32.856361 -68.290802 -643.730408 0.310078 -0.950238 0.030008
35.576183 -66.367416 -639.933167 0.478501 -0.846578 0.233116
37.473511 -67.124924 -648.851562 0.168179 -0.930589 0.325146
43.082405 -66.326691 -649.009583 0.198875 -0.900785 0.386051
44.509037 -66.938652 -651.533203 0.329097 -0.865403 0.377852
37.604385 -66.028625 -643.931335 0.407445 -0.896380 0.174619
42.820808 -64.450592 -643.918640 0.240460 -0.927488 0.286262
31.837126 -66.282967 -636.505066 0.103764 -0.818583 0.564938
31.741056 -63.072678 -632.196472 -0.234962 -0.779085 0.581222
36.545280 -64.752800 -636.725464 0.439600 -0.841520 0.314000
42.145988 -62.391582 -636.003418 0.329142 -0.919327 0.215645
37.150822 -62.830086 -631.886841 0.169031 -0.912767 0.371868
42.303463 -61.188736 -632.125366 0.356668 -0.873222 0.332070
38.289124 -64.539474 -638.653992 0.424593 -0.861318 0.279019
43.002220 -62.861317 -638.920471 0.313636 -0.917675 0.243939
44.635155 -60.867794 -634.596497 0.439600 -0.841520 0.314000
34.596367 -33.103008 -651.260803 0.253565 0.881439 0.398459
39.386784 -34.205105 -650.752869 0.104376 0.846608 0.521882
47.241962 -64.513481 -648.809692 0.416588 -0.820553 0.391341
49.189453 -64.625954 -650.998962 0.387167 -0.836781 0.387167
53.736366 -62.593349 -651.670532 0.485569 -0.834183 0.261460
47.701828 -62.428844 -644.620178 0.446122 -0.803020 0.395137
49.876614 -62.218914 -646.563049 0.390843 -0.844724 0.365627
52.585777 -59.979259 -643.994385 0.344385 -0.890651 0.296884
54.107437 -60.657284 -646.951233 0.329097 -0.865403 0.377852
58.882423 -59.953243 -652.232971 0.352205 -0.920276 0.170422
64.987656 -58.625927 -652.330444 0.079317 -0.995875 0.044065
59.062222 -59.086132 -647.240173 0.241971 -0.957364 0.157807
64.706848 -57.660572 -647.255127 0.387167 -0.836781 0.387167
46.348885 -59.025780 -632.316650 0.546321 -0.775013 0.317628
48.080780 -60.540009 -639.622925 0.497088 -0.836563 0.230358
53.348042 -58.453724 -640.414856 0.223128 -0.904257 0.364051
54.593552 -59.164543 -643.466125 0.238837 -0.921228 0.307076
48.624252 -58.376789 -634.713928 0.560968 -0.785355 0.261785
53.047417 -56.102928 -635.686096 0.371825 -0.782116 0.500041
58.349655 -57.106815 -640.850952 0.286717 -0.810287 0.511104
59.528633 -57.289349 -641.888916 0.307473 -0.848624 0.430462
64.325874 -53.966431 -642.935242 0.718540 -0.326609 0.614025
57.629368 -54.180309 -636.953979 0.513380 -0.460726 0.723998
59.357597 -51.525032 -637.219666 0.642364 -0.105114 0.759157
62.178764 -50.777786 -640.053406 0.717998 0.034190 0.695205
60.109394 -59.907204 -654.832825 0.426586 -0.887759 0.172940
64.358154 -58.750603 -655.151001 0.063639 -0.990950 0.118187
63.844490 -46.012554 -654.586792 0.244734 0.969145 -0.029368
64.619270 -45.062164 -660.485657 0.376560 0.792074 0.480438
63.346989 -41.654251 -663.849426 0.265102 0.669066 0.694314
58.344330 -43.021915 -656.614990 0.580802 0.735683 0.348481
57.378704 -39.507328 -660.754395 0.652291 0.652291 0.386049
62.188370 -44.905678 -658.165771 0.445255 0.826902 0.343483
60.817253 -41.656219 -662.166321 0.489776 0.754520 0.436828
54.176701 -43.851665 -641.251221 0.390130 0.886659 0.248264
52.177578 -41.771770 -644.908630 0.430462 0.848624 0.307473
52.585281 -39.780746 -652.328796 0.485569 0.834183 0.261460
50.834007 -36.890644 -655.641418 0.463627 0.755050 0.463627
46.418362 -37.651184 -647.987915 0.447018 0.857791 0.253713
44.869320 -35.431816 -652.200439 0.429660 0.794220 0.429660
50.425598 -39.644653 -648.722473 0.475645 0.841526 0.256117
48.705334 -36.917641 -653.529236 0.450536 0.810965 0.373301
58.384686 -43.505779 -649.544006 0.416428 0.907600 0.053388
65.189720 -47.908566 -645.362305 0.625666 0.625666 0.465922
62.764797 -45.215416 -649.989807 0.328119 0.944584 -0.009943
58.076977 -45.433495 -641.499573 0.372791 0.877863 0.300638
56.707047 -43.469501 -645.605591 0.390130 0.886659 0.248264
62.302853 -47.151955 -642.575195 0.577767 0.685259 0.443403
61.249851 -45.197353 -646.325256 0.362060 0.899309 0.245266
56.164471 -42.131428 -653.381592 0.630302 0.753891 0.185383
54.655312 -38.642380 -657.680237 0.618689 0.671343 0.408071
59.985355 -44.416988 -653.169983 0.442243 0.895272 -0.053932
54.282524 -41.472343 -649.538635 0.501665 0.851663 0.151666
33.506680 -31.307623 -652.762695 0.170422 0.352205 0.920276
38.849056 -30.865820 -653.817688 0.284951 0.433621 0.854854
39.396278 -26.984280 -655.494751 0.377852 0.329097 0.865403
64.171028 -38.961048 -665.184326 0.378064 0.194760 0.905062
56.667000 -35.903496 -662.629822 0.485569 0.261460 0.834183
61.231960 -35.683640 -664.416748 0.258475 0.093051 0.961526
61.604321 -31.084320 -664.609863 0.258246 -0.009565 0.966032
50.489983 -33.125546 -659.208496 0.570802 0.464606 0.676998
50.486439 -28.553404 -661.001221 0.483896 0.153430 0.861571
43.817982 -31.164328 -656.007080 0.450536 0.424791 0.785220
43.716862 -26.059752 -657.926025 0.424593 0.279019 0.861318
47.734200 -31.802597 -657.962646 0.484043 0.457878 0.745688
48.129551 -26.193836 -660.376587 0.456442 0.259062 0.851203
44.170864 -21.626244 -659.332764 0.442646 0.203378 0.873328
48.745197 -21.379539 -661.490723 0.313098 0.140354 0.939293
48.950832 -16.948248 -662.289673 0.330679 0.193846 0.923621
54.577110 -33.660374 -662.030640 0.459530 0.310493 0.832122
54.928799 -28.572540 -662.444580 0.244734 -0.029368 0.969145
59.177048 -32.091068 -663.813293 0.334255 0.030387 0.941993
60.356670 -27.718538 -664.464966 0.233831 0.111832 0.965824
53.856316 -25.303347 -662.293762 0.258475 0.093051 0.961526
55.799206 -24.204647 -663.112305 0.399095 0.171041 0.900815
60.198620 -22.897188 -665.145447 0.204372 0.204372 0.957321
53.573891 -20.913061 -662.814697 0.313977 0.119095 0.941931
53.854073 -15.726303 -664.271362 0.380805 0.307101 0.872167
58.158676 -20.814569 -664.922058 0.447018 0.253713 0.857791
58.398922 -15.892224 -666.715637 0.475023 0.346638 0.808823
54.237568 -10.830256 -666.479248 0.485374 0.406665 0.773974
58.398880 -11.041863 -669.151245 0.459771 0.433498 0.775042
57.984627 -6.229293 -672.144592 0.499317 0.526307 0.688247
57.227474 -1.769182 -675.328125 0.521020 0.547739 0.654615
57.059467 2.578699 -678.771912 0.601177 0.494301 0.627896
31.782064 -59.605778 -627.435059 -0.317628 -0.775013 0.546321
30.917448 -56.268959 -623.279358 -0.235975 -0.757603 0.608567
37.037197 -60.049313 -626.983459 0.081666 -0.781663 0.618331
42.384071 -58.521385 -627.555359 0.435305 -0.699126 0.567215
36.239460 -56.183243 -623.142578 0.181435 -0.520115 0.834603
41.465912 -54.898392 -623.989258 0.349414 -0.504709 0.789417
42.477222 -51.683159 -623.293152 0.412360 -0.122594 0.902735
30.818403 -52.758396 -620.953735 -0.115115 -0.282556 0.952318
35.427265 -52.207302 -621.078064 0.181852 -0.246035 0.952049
35.702854 -48.594929 -620.963318 0.217584 0.155417 0.963588
34.925056 -42.694691 -623.190063 0.057586 0.633440 0.771646
40.745670 -47.955933 -622.593079 0.378064 0.194760 0.905062
40.461422 -43.153240 -624.785889 0.444366 0.605954 0.659817
35.639397 -35.452999 -635.268494 0.361963 0.836260 0.411889
41.396091 -39.548416 -632.045471 0.406850 0.850686 0.332877
39.890987 -37.427505 -636.244507 0.440383 0.868863 0.226142
33.297192 -32.706417 -647.596375 0.352205 0.920276 -0.170422
39.956799 -35.965496 -643.983643 0.434233 0.900240 0.031773
37.880142 -34.838970 -647.876343 0.271435 0.944593 0.184576
34.049988 -33.139023 -638.945007 0.311790 0.912274 0.265599
32.289925 -31.859770 -643.139893 0.221780 0.973904 0.048213
37.899979 -35.263794 -640.031982 0.573213 0.792742 0.207332
34.082794 -39.281773 -627.985474 -0.148934 0.882149 0.446803
33.350040 -36.553249 -632.523071 0.104376 0.846608 0.521882
39.281166 -39.737652 -628.900635 0.395137 0.803020 0.446122
37.795979 -37.260197 -633.149902 0.415530 0.843652 0.339979
32.595299 -33.733826 -636.681091 0.174714 0.873571 0.454257
46.627560 -56.565254 -628.723022 0.549310 -0.629696 0.549310
45.597450 -53.986027 -625.743225 0.480115 -0.428210 0.765588
48.496853 -55.482513 -629.519165 0.586297 -0.586297 0.559027
52.271214 -52.864998 -631.196411 0.649078 -0.437134 0.622585
53.461056 -47.530605 -632.836365 0.586297 0.559027 0.586297
47.210590 -50.663288 -625.878601 0.597850 0.033841 0.800893
47.136593 -45.184738 -628.457092 0.576934 0.550100 0.603769
50.306221 -50.258026 -628.502258 0.681319 0.080834 0.727510
50.511410 -46.689583 -630.535645 0.602901 0.602901 0.522514
55.671871 -51.778568 -633.993896 0.665260 -0.213385 0.715469
56.691914 -48.731979 -635.206177 0.597351 0.384960 0.703547
44.728157 -48.060333 -624.626343 0.499740 0.207209 0.841026
44.524216 -44.482784 -626.703552 0.494301 0.601177 0.627896
48.232861 -41.795750 -636.570923 0.581222 0.779085 0.234962
46.384369 -39.515381 -640.408875 0.517697 0.830723 0.204671
51.837437 -43.948212 -637.268921 0.492332 0.820553 0.290349
50.118404 -41.715672 -641.534607 0.507334 0.829058 0.235106
45.925030 -41.607811 -632.983398 0.459530 0.832122 0.310493
44.240543 -39.308815 -637.138489 0.384163 0.896380 0.221185
49.459934 -43.639492 -634.205383 0.505047 0.764046 0.401448
44.279400 -37.520981 -644.209839 0.412360 0.902735 0.122594
48.166771 -39.565578 -644.875977 0.475645 0.841526 0.256117
55.885986 -45.543541 -638.485779 0.436038 0.834701 0.336372
43.317165 -41.488808 -629.879456 0.494543 0.798878 0.342376
32.186543 -30.091648 -653.089783 0.053243 0.372699 0.926424
31.958090 -24.505106 -653.731079 0.181199 0.047684 0.982290
37.231514 -29.056082 -654.059448 0.240460 0.286262 0.927488
36.988400 -24.097395 -655.255432 0.378064 0.194760 0.905062
30.459234 -21.183992 -653.614197 0.229782 0.089915 0.969080
32.552483 -20.059685 -654.330750 0.313098 0.140354 0.939293
37.390762 -19.387606 -656.351318 0.392417 0.145755 0.908165
38.249058 -15.281405 -657.492432 0.400556 0.148778 0.904113
30.409977 -16.983578 -654.335632 0.204372 0.204372 0.957321
30.384342 -12.088828 -655.772888 0.215645 0.329142 0.919327
35.345078 -16.657309 -655.960144 0.384163 0.221185 0.896380
35.589657 -12.014890 -657.148071 0.323197 0.299256 0.897769
35.542465 -6.907252 -659.081970 0.248264 0.390130 0.886659
34.874977 -2.106290 -661.942200 0.154729 0.583209 0.797450
33.885159 2.681216 -665.462036 0.033501 0.636524 0.770529
33.143723 6.748999 -669.249268 -0.011047 0.718024 0.695931
41.316299 -23.809992 -657.335815 0.461579 0.201201 0.863981
41.746731 -18.886652 -658.585327 0.419508 0.147395 0.895705
42.340824 -14.122446 -659.691833 0.466301 0.125105 0.875735
46.243591 -18.594728 -660.914917 0.419508 0.147395 0.895705
47.093433 -13.802862 -662.055725 0.440376 0.101625 0.892043
40.059647 -11.411207 -659.160889 0.412164 0.223746 0.883209
51.819443 -13.837085 -664.035034 0.351806 0.303281 0.885581
43.511845 -9.815990 -661.178711 0.369808 0.250515 0.894698
47.266823 -8.878753 -663.200684 0.456442 0.259062 0.851203
47.619919 -3.552476 -665.804504 0.529175 0.374295 0.761496
40.216293 -6.839554 -660.829956 0.357970 0.382658 0.851722
40.242107 -2.132297 -663.467712 0.290349 0.492332 0.820553
44.919044 -6.982135 -662.645569 0.406850 0.332877 0.850686
44.917107 -2.197200 -665.023193 0.346638 0.475023 0.808823
39.369900 2.788968 -666.461060 0.180279 0.564873 0.805244
38.788425 7.045182 -670.020264 0.130629 0.676895 0.724396
44.595104 2.380749 -667.885498 0.325500 0.585900 0.742140
43.867558 6.629154 -671.225769 0.265102 0.669066 0.694314
51.562157 -9.060440 -665.829041 0.441274 0.365627 0.819509
51.362438 -4.015129 -668.482727 0.597351 0.384960 0.703547
54.912743 -5.294258 -670.500732 0.555323 0.501145 0.663679
51.258656 0.511409 -670.967224 0.602037 0.414737 0.682309
50.809139 5.235775 -674.335388 0.603769 0.576934 0.550100
54.298901 -0.317038 -673.650208 0.649078 0.437134 0.622585
53.791939 4.231051 -676.628662 0.636123 0.473709 0.609054
48.219162 1.564616 -669.333252 0.431124 0.509510 0.744669
47.896515 6.241082 -672.931702 0.415332 0.629696 0.656492
73.245293 -82.618256 -663.747070 0.322027 0.051940 0.945305
79.942375 -81.411278 -665.060120 -0.539589 -0.080364 0.838085
73.106499 -77.339622 -665.112854 0.196417 0.358172 0.912761
72.173355 -72.727097 -666.888123 0.050275 0.291594 0.955220
77.766899 -77.208412 -665.843384 -0.263005 0.029223 0.964352
76.065216 -73.035065 -666.408936 -0.386628 -0.099419 0.916861
71.851067 -70.307518 -667.373352 -0.107110 0.146058 0.983460
79.445465 -73.182365 -663.007263 -0.785355 -0.261785 0.560968
76.783165 -69.828796 -665.103577 -0.711445 -0.237148 0.661519
85.408020 -85.317261 -660.385498 -0.323197 -0.299256 0.897769
83.249947 -81.278206 -661.646851 -0.722148 -0.159117 0.673189
90.669647 -84.538261 -659.748291 0.128754 -0.503311 0.854459
86.630127 -80.717331 -658.480530 -0.386628 -0.099419 0.916861
84.607430 -77.244270 -658.808777 -0.528214 -0.208829 0.823031
90.035904 -80.521088 -657.810242 0.115115 -0.282556 0.952318
89.463829 -77.195404 -656.964050 -0.135102 -0.218241 0.966498
81.180763 -77.301834 -662.621460 -0.790781 -0.288698 0.539739
81.392105 -74.133278 -660.638855 -0.781089 -0.294509 0.550604
80.081314 -69.145195 -659.671082 -0.703547 -0.384960 0.597351
77.093674 -65.695770 -661.096558 -0.742643 -0.534182 0.403894
72.224998 -60.211861 -657.095764 -0.126420 -0.884941 0.448217
76.820084 -61.858654 -657.590759 -0.296066 -0.579260 0.759475
85.308350 -73.001709 -657.067444 -0.456442 -0.259062 0.851203
89.047523 -72.784714 -656.211975 -0.046807 -0.177866 0.982941
83.120094 -69.862801 -657.381042 -0.507334 -0.235106 0.829058
80.308945 -66.427567 -658.054871 -0.552418 -0.346867 0.757969
88.196251 -69.401077 -655.728577 -0.190582 -0.130398 0.972972
83.670792 -65.815422 -656.081970 -0.318489 -0.164736 0.933502
81.804619 -62.068241 -656.098450 -0.277614 -0.092538 0.956226
88.081802 -65.296738 -655.084229 -0.080553 -0.080553 0.993490
87.123413 -60.689308 -655.324219 -0.084549 0.140915 0.986405
70.736046 -66.322884 -667.567627 -0.238512 -0.114071 0.964417
74.559639 -66.462196 -665.805115 -0.591952 -0.355171 0.723496
70.786003 -62.136208 -664.648010 -0.237148 -0.711445 0.661519
74.386429 -63.457382 -663.496765 -0.641469 -0.693834 0.327280
69.989388 -60.108978 -659.954468 -0.302824 -0.950239 0.073095
73.527359 -61.360840 -658.895142 -0.310685 -0.857490 0.410104
95.975487 -83.415771 -660.522400 0.290349 -0.492332 0.820553
98.160904 -79.410873 -659.500854 0.377852 -0.329097 0.865403
100.624344 -81.940208 -661.857605 0.425355 -0.399576 0.812042
102.178093 -79.507034 -661.474182 0.498731 -0.319699 0.805642
94.969719 -79.292572 -658.360107 0.235450 -0.280298 0.930589
95.441383 -76.219765 -657.600769 0.280298 -0.235450 0.930589
100.491631 -75.231712 -659.300659 0.420893 -0.228485 0.877863
101.592308 -71.192009 -659.040161 0.439257 -0.123893 0.889777
106.717361 -77.593994 -663.306213 0.433621 -0.284951 0.854854
110.923401 -76.282150 -665.116821 0.430462 -0.307473 0.848624
105.120422 -73.758881 -661.282471 0.449651 -0.230902 0.862843
108.488708 -73.644638 -663.001892 0.414237 -0.201201 0.887652
112.208084 -73.246017 -664.765076 0.418480 -0.251088 0.872829
106.131264 -70.202431 -661.127563 0.475748 -0.127640 0.870271
110.713692 -69.470497 -663.194519 0.419508 -0.147395 0.895705
111.765785 -65.206314 -663.080933 0.353655 -0.075018 0.932363
94.295181 -72.363548 -656.493652 0.193807 -0.153005 0.969035
98.909454 -71.384888 -657.801697 0.373197 -0.147017 0.916029
94.382568 -68.413597 -655.858215 0.197031 -0.176291 0.964417
99.761002 -67.461357 -657.662292 0.413388 -0.100554 0.904986
100.447922 -63.118134 -657.712280 0.416808 0.032062 0.908429
93.218719 -64.889526 -655.135498 0.184449 -0.067955 0.980490
92.997154 -60.134647 -655.828064 0.231977 0.254070 0.938954
97.973778 -63.947552 -656.549438 0.346716 0.073546 0.935082
98.368530 -59.818035 -657.501099 0.313098 0.140354 0.939293
104.359581 -66.649887 -659.918152 0.432506 -0.077629 0.898283
105.118935 -62.304401 -659.990479 0.426275 -0.010397 0.904534
108.452782 -65.718826 -661.747131 0.372193 -0.074439 0.925166
109.857353 -61.413700 -662.054382 0.365796 -0.031354 0.930167
103.086510 -58.953876 -659.275146 0.321611 0.072622 0.944083
99.097832 -56.061508 -657.367004 0.427370 -0.256422 0.866950
110.275124 -57.306389 -661.986389 0.328029 -0.074071 0.941759
104.052338 -54.542259 -659.306458 0.412360 -0.122594 0.902735
108.717262 -53.805161 -661.143616 0.372193 -0.074439 0.925166
109.398186 -49.261940 -661.075806 0.334393 -0.010133 0.942379
69.824524 -58.126522 -653.279846 0.313210 -0.814347 0.488608
75.686470 -57.608253 -654.322693 0.131372 -0.585202 0.800175
68.699272 -55.508766 -648.754456 0.612656 -0.585427 0.530969
81.574524 -57.152306 -654.497314 -0.010940 -0.601713 0.798637
86.913795 -56.621326 -654.365784 0.010697 -0.459979 0.887866
67.050903 -52.876625 -645.747498 0.761216 -0.034084 0.647602
69.528954 -59.020489 -655.175720 -0.031773 -0.900240 0.434233
75.477516 -56.041039 -653.245483 0.176349 -0.482019 0.858230
70.829742 -52.008465 -649.722229 0.658223 0.057739 0.750605
68.913490 -46.537827 -654.110657 0.106786 0.980490 0.165033
74.902542 -51.543671 -652.062866 0.297299 0.051258 0.953407
74.345428 -47.203568 -654.729614 0.057373 0.791745 0.608152
68.721130 -45.728703 -661.641052 0.056060 0.818470 0.571808
67.976044 -42.313431 -665.490845 0.156513 0.686249 0.710328
73.261742 -44.353165 -661.778198 -0.471181 0.857791 0.205387
73.261223 -41.551407 -665.120972 -0.319699 0.498731 0.805642
68.438713 -46.263081 -657.941650 -0.116280 0.992854 -0.026834
74.819405 -44.374046 -658.790405 -0.403346 0.793682 0.455391
81.335396 -54.994846 -653.337219 0.053243 -0.372699 0.926424
86.785957 -53.622517 -653.379150 0.126632 -0.126632 0.983834
80.695786 -51.045498 -652.882874 0.046227 0.138681 0.989258
80.060555 -46.741825 -654.687927 -0.127229 0.520483 0.844340
85.962585 -50.310352 -653.432861 0.087239 0.184171 0.979015
85.289490 -45.702393 -654.506592 -0.046227 0.138681 0.989258
76.679764 -39.724827 -663.799866 -0.723998 0.460726 0.513380
79.301979 -41.756310 -657.914795 -0.487391 0.487391 0.724500
78.960564 -37.941753 -661.646179 -0.810965 0.450536 0.373301
84.013885 -40.287415 -655.884094 -0.318486 0.271303 0.908274
81.911827 -35.462341 -659.185242 -0.662226 0.350590 0.662226
67.775826 -49.469532 -647.274902 0.723998 0.460726 0.513380
67.026001 -46.774963 -650.590698 0.440383 0.868863 0.226142
85.199654 -38.387276 -656.015015 -0.362060 0.245266 0.899309
84.459496 -33.576958 -657.855042 -0.568075 0.290349 0.770057
92.119781 -56.103939 -654.937622 0.218477 -0.356463 0.908406
96.404114 -56.030449 -656.160889 0.310685 -0.410104 0.857490
92.419197 -52.850914 -654.305359 0.238512 -0.114071 0.964417
97.333481 -51.989067 -655.860840 0.397988 -0.075295 0.914296
98.246979 -47.783695 -655.891174 0.353007 -0.096275 0.930654
91.312134 -49.723949 -654.081482 0.136189 0.045396 0.989642
90.964737 -44.829533 -654.317505 -0.008379 -0.075412 0.997117
94.989861 -48.465782 -654.859680 0.281103 0.009693 0.959629
96.563354 -44.250237 -655.029480 0.283177 -0.094392 0.954411
90.362076 -40.819599 -654.330994 0.008509 0.093601 0.995573
96.600380 -39.575287 -655.041870 0.229782 0.089915 0.969080
101.969200 -51.001488 -657.899841 0.432506 -0.077629 0.898283
103.090752 -46.784332 -658.112488 0.485389 -0.032359 0.873699
105.766846 -50.406361 -659.616943 0.405957 -0.076803 0.910659
107.565666 -46.097500 -660.309204 0.401337 0.010291 0.915872
101.073509 -43.383064 -656.882874 0.485615 -0.010791 0.874106
108.446106 -41.447315 -660.651367 0.459979 0.010697 0.887866
102.092857 -38.974991 -657.321289 0.485615 -0.010791 0.874106
102.980232 -34.424168 -658.009460 0.486039 0.079123 0.870348
106.085197 -38.264782 -659.606567 0.468194 0.054441 0.881947
107.104904 -33.534000 -660.717285 0.520483 0.127229 0.844340
89.852791 -37.206478 -654.928589 -0.107110 0.146058 0.983460
88.984329 -32.515980 -655.784607 -0.318486 0.271303 0.908274
95.094109 -36.369835 -655.119446 0.187367 0.108476 0.976282
95.082352 -31.550182 -655.977051 0.135102 0.218241 0.966498
90.284210 -28.829779 -656.378174 -0.293426 0.141279 0.945485
93.089622 -28.228350 -656.411682 0.165860 0.298548 0.939872
100.056252 -35.930988 -656.496643 0.405957 0.076803 0.910659
100.480339 -31.221071 -657.516846 0.334351 0.242116 0.910818
104.384743 -30.875261 -659.467957 0.573213 0.207332 0.792742
68.013588 -38.543659 -666.959778 0.397988 -0.075295 0.914296
72.400635 -37.521919 -667.277344 -0.096853 0.026415 0.994948
67.072746 -34.165333 -665.919495 -0.196417 -0.358172 0.912761
65.348564 -31.286222 -665.098633 -0.281718 -0.214106 0.935304
72.292534 -33.145679 -666.027161 0.150362 -0.474218 0.867472
73.079056 -30.022974 -664.307983 0.201201 -0.461579 0.863981
76.281593 -36.132759 -666.209900 -0.511104 0.286717 0.810287
78.635910 -33.686031 -665.362488 -0.687247 0.471640 0.552492
78.011330 -29.515854 -665.538696 0.142223 -0.339147 0.929920
80.801407 -31.369480 -663.686340 -0.836260 0.361963 0.411889
80.887138 -28.164345 -664.972717 -0.468194 -0.054441 0.881947
68.019417 -30.450979 -663.868347 0.010007 -0.310202 0.950618
66.048798 -26.911861 -663.933289 -0.695174 -0.182940 0.695174
71.396072 -30.068100 -664.017639 0.079123 -0.486039 0.870348
71.244537 -26.313290 -662.660217 0.067955 -0.184449 0.980490
66.983887 -22.913836 -662.910339 -0.267826 0.049597 0.962190
70.922310 -22.822382 -662.658752 0.085894 0.162244 0.983005
64.789276 -21.911839 -664.767029 -0.179086 0.221224 0.958639
66.276474 -19.391123 -663.928650 -0.727398 0.209589 0.653425
64.429359 -15.675507 -667.133911 -0.154729 0.583209 0.797450
70.315422 -18.826138 -663.884949 0.053243 0.372699 0.926424
69.698250 -14.137331 -666.220276 0.177830 0.509778 0.841726
76.733482 -25.589350 -663.810181 0.353007 -0.096275 0.930654
83.678864 -29.370024 -660.649597 -0.716586 0.377836 0.586297
82.609550 -24.588936 -663.884827 -0.704790 0.080878 0.704790
84.557320 -20.495985 -663.012756 -0.539590 0.155882 0.827371
77.658325 -20.502209 -664.552429 0.483896 0.153430 0.861571
80.819122 -20.058233 -665.247620 -0.240174 0.028821 0.970302
75.754555 -18.520720 -664.473511 0.165860 0.298548 0.939872
75.105400 -13.990331 -666.496277 0.128754 0.503311 0.854459
82.393745 -17.101198 -664.571655 -0.477336 0.055504 0.876966
80.676048 -12.533608 -666.056641 -0.539590 0.155882 0.827371
63.888653 -10.938955 -670.318970 -0.263097 0.588836 0.764233
63.124588 -6.747345 -673.634094 -0.186066 0.707052 0.682243
69.049347 -9.501040 -669.642517 0.080878 0.704790 0.704790
68.246033 -6.283263 -673.504028 0.105114 0.829233 0.548929
63.684502 1.784490 -682.200378 0.080492 0.632435 0.770420
66.880287 1.919951 -682.055603 -0.182507 0.644857 0.742194
61.971767 -2.897825 -677.214783 0.241398 0.673372 0.698783
60.879448 1.562296 -680.916016 0.378867 0.614025 0.692411
67.822495 -2.640129 -677.913635 0.056925 0.694483 0.717253
67.656487 1.889036 -681.818359 -0.211396 0.584449 0.783410
74.761299 -9.269507 -669.939026 -0.153860 0.556262 0.816640
74.241486 -4.794205 -673.284363 -0.353705 0.563308 0.746711
79.743835 -7.629086 -668.337585 -0.365627 0.441274 0.819509
79.132668 -2.726594 -671.777405 -0.353705 0.563308 0.746711
73.835815 -0.729544 -677.063538 -0.469598 0.523266 0.711105
73.291222 3.136372 -680.722473 -0.350590 0.662226 0.662226
78.686081 1.189362 -675.708984 -0.268197 0.753505 0.600250
78.149971 4.266724 -680.058228 -0.206110 0.812315 0.545585
107.302284 -28.228874 -662.357788 0.504709 0.349414 0.789417
86.845139 -27.731840 -658.370483 -0.669066 0.265102 0.694314
85.611877 -23.254562 -661.368652 -0.735035 0.236706 0.635369
95.637543 -27.030367 -657.285095 0.225887 0.392329 0.891657
88.988678 -25.541042 -657.702148 -0.415530 0.339979 0.843652
88.032303 -20.895903 -660.267517 -0.323197 0.299256 0.897769
93.651611 -24.761730 -657.868286 0.170422 0.352205 0.920276
93.223061 -20.252554 -659.971069 0.228353 0.468724 0.853319
86.765984 -16.245819 -662.618835 -0.633345 0.444689 0.633345
85.771645 -11.374011 -664.743774 -0.361963 0.411889 0.836260
92.581978 -15.528588 -662.550964 0.369644 0.420630 0.828513
92.095345 -10.449627 -665.895081 0.519170 0.519170 0.678915
100.424507 -26.362015 -659.126099 0.382658 0.357970 0.851722
100.188721 -21.119471 -662.068909 0.428210 0.480115 0.765588
104.713348 -26.464493 -661.389832 0.500041 0.371825 0.782116
104.715958 -21.967773 -664.172302 0.403894 0.534182 0.742643
97.753143 -24.190247 -659.186584 0.281853 0.453416 0.845560
97.918701 -20.388607 -661.475464 0.322025 0.528121 0.785741
99.843529 -16.564079 -665.404114 0.436522 0.595257 0.674624
99.006866 -12.199088 -669.433899 0.494301 0.627896 0.601177
104.155144 -17.326723 -667.599609 0.415332 0.656492 0.629696
103.102859 -13.341600 -671.225830 0.415332 0.656492 0.629696
97.348053 -15.890469 -664.453308 0.356158 0.619979 0.699126
96.176132 -11.457289 -667.596680 0.603769 0.550100 0.576934
104.564667 -5.739029 -679.740601 0.386049 0.652291 0.652291
97.077042 4.101093 -687.948608 0.256422 0.866950 0.427370
102.874023 -1.059739 -683.754456 0.407225 0.696224 0.591134
101.719620 2.586099 -688.362976 0.307473 0.848624 0.430462
85.280907 -6.168557 -667.818970 -0.130629 0.558141 0.819399
85.168594 -1.388533 -671.729858 -0.080705 0.749407 0.657172
91.998718 -6.178791 -669.132874 0.585427 0.530969 0.612656
90.727348 -2.155033 -672.701538 0.323966 0.764559 0.557221
84.966461 5.621140 -683.164185 0.212706 0.929189 0.302266
92.072441 1.482872 -679.840698 0.450536 0.810965 0.373301
90.207153 4.239721 -683.785034 0.343483 0.826902 0.445255
84.614670 1.878821 -675.806091 0.055724 0.835865 0.546099
83.505981 4.687634 -680.330200 0.178331 0.867880 0.463662
89.755241 1.273241 -677.006470 0.294509 0.781089 0.550604
88.411057 3.691348 -681.354492 0.319699 0.805642 0.498731
98.066200 -8.033139 -673.050598 0.550100 0.576934 0.603769
97.142845 -3.687572 -676.616760 0.521020 0.654615 0.547739
102.492836 -9.279519 -675.103333 0.384960 0.597351 0.703547
101.679947 -5.061989 -678.648804 0.415332 0.656492 0.629696
95.474167 -7.617153 -670.979736 0.493597 0.653682 0.573639
94.583931 -3.595662 -674.537598 0.602901 0.602901 0.522514
96.188065 -0.043345 -680.594177 0.374295 0.761496 0.529175
95.100082 3.032441 -684.716858 0.281853 0.845560 0.453416
100.702469 -1.041556 -682.268616 0.407225 0.696224 0.591134
99.578537 2.063909 -685.911682 0.339549 0.817432 0.465308
93.224503 -0.261032 -677.885986 0.469598 0.711105 0.523266
115.486938 -76.114983 -667.201660 0.375406 -0.278527 0.884021
117.275932 -72.063759 -666.606750 0.362060 -0.245266 0.899309
121.836685 -70.827095 -668.104919 0.414237 -0.201201 0.887652
123.390877 -67.185211 -668.043396 0.446803 -0.148934 0.882149
115.656509 -68.055016 -665.023132 0.352205 -0.170422 0.920276
116.349632 -64.369896 -664.743469 0.319570 -0.143256 0.936671
121.273575 -63.515488 -666.454590 0.385688 -0.121216 0.914632
126.207405 -69.668060 -670.135681 0.489659 -0.203029 0.847946
127.455513 -66.148483 -670.172729 0.530810 -0.129753 0.837499
125.566307 -62.331886 -668.400513 0.475748 -0.127640 0.870271
115.088501 -60.516830 -663.827515 0.253850 -0.071078 0.964629
119.095490 -59.901611 -665.077942 0.347176 -0.052602 0.936323
122.532402 -59.354225 -666.511353 0.424641 -0.054441 0.903723
129.016190 -62.135914 -670.523376 0.556262 -0.153860 0.816640
126.796913 -58.257915 -668.747620 0.511021 -0.032618 0.858949
127.941742 -53.948849 -669.386841 0.527065 -0.010756 0.849757
115.325981 -56.396904 -663.510071 0.328029 -0.074071 0.941759
120.207893 -55.668083 -665.250183 0.408854 -0.031450 0.912058
121.013397 -51.328133 -665.572083 0.426275 0.010397 0.904534
113.642418 -52.929150 -662.750732 0.315817 -0.050938 0.947452
114.172066 -48.687511 -662.840332 0.310078 -0.030008 0.950238
117.848778 -52.137730 -664.226990 0.376631 -0.010179 0.926308
119.099754 -48.159615 -664.769897 0.376631 -0.010179 0.926308
114.917122 -44.516674 -663.279602 0.383693 0.031110 0.922937
119.755592 -43.125877 -665.310608 0.379651 0.075930 0.922009
124.608665 -54.864567 -667.385193 0.485389 -0.032359 0.873699
125.534836 -50.588280 -667.982422 0.501849 0.010678 0.864889
129.571548 -49.915031 -670.479065 0.530169 0.056401 0.846014
123.305458 -47.364521 -666.712646 0.459979 0.010697 0.887866
126.561813 -46.163754 -668.677002 0.527065 -0.010756 0.849757
124.298340 -42.665596 -667.529663 0.486039 0.079123 0.870348
124.934189 -38.021961 -668.496704 0.493406 0.126220 0.860592
128.101257 -42.406620 -669.862549 0.556423 0.056778 0.828957
129.008606 -37.631516 -671.085876 0.539590 0.155882 0.827371
112.399025 -45.534210 -662.268677 0.358809 0.030755 0.932904
112.772430 -40.896027 -662.606384 0.390818 0.052813 0.918951
113.410027 -36.109238 -663.329773 0.413388 0.100554 0.904986
117.399773 -40.414062 -664.588684 0.405957 0.076803 0.910659
117.945679 -35.716309 -665.529419 0.419508 0.147395 0.895705
110.918350 -37.259747 -662.053223 0.390818 0.052813 0.918951
111.463013 -33.337467 -662.914551 0.395927 0.275949 0.875839
115.606346 -32.826988 -665.071594 0.412164 0.223746 0.883209
121.543831 -39.234333 -666.624573 0.392417 0.145755 0.908165
122.707886 -35.533543 -667.741882 0.414237 0.201201 0.887652
126.324188 -34.083572 -670.119507 0.499740 0.207209 0.841026
129.645508 -32.872086 -672.633850 0.572101 0.266980 0.775514
126.761971 -9.117618 -689.853699 0.466916 0.733725 0.493597
120.112999 -0.536774 -696.343384 0.409493 0.752939 0.515169
125.407616 -5.662604 -693.640320 0.487391 0.724500 0.487391
124.397072 -2.176700 -697.689697 0.463627 0.755050 0.463627
118.279419 -30.499073 -667.055420 0.424593 0.279019 0.861318
111.508972 -28.569605 -664.541931 0.387167 0.387167 0.836781
111.296501 -23.468449 -667.159302 0.398518 0.475651 0.784181
116.132431 -28.917200 -666.668762 0.387167 0.387167 0.836781
115.818398 -24.003414 -669.039551 0.398518 0.475651 0.784181
110.869911 -18.431055 -670.410461 0.378867 0.614025 0.692411
109.844177 -14.010328 -674.062805 0.327505 0.668110 0.668110
115.200920 -19.429068 -671.901306 0.378867 0.614025 0.692411
114.823288 -14.929827 -675.519226 0.327280 0.641469 0.693834
122.816254 -30.594620 -669.315125 0.439600 0.314000 0.841520
122.452614 -25.276190 -671.697144 0.376560 0.480438 0.792074
126.931305 -30.467159 -671.679871 0.488608 0.313210 0.814347
127.071983 -25.949537 -673.806824 0.485374 0.406665 0.773974
120.149750 -24.199997 -671.194641 0.398518 0.475651 0.784181
122.191673 -20.674721 -674.665466 0.409493 0.515169 0.752939
121.664062 -15.930525 -678.100281 0.350354 0.635828 0.687732
126.936615 -21.360533 -676.779480 0.443403 0.577767 0.685259
126.202209 -17.018610 -680.065125 0.473709 0.609054 0.636123
120.174774 -20.054729 -674.007690 0.411799 0.544637 0.730611
119.370453 -15.740101 -677.105896 0.356655 0.647263 0.673682
108.233612 -25.741932 -664.088440 0.485374 0.406665 0.773974
108.610786 -22.220100 -666.287903 0.459771 0.433498 0.775042
108.683014 -18.386454 -669.263245 0.384960 0.597351 0.703547
107.928383 -14.142447 -672.979431 0.350590 0.662226 0.662226
115.658386 -6.849275 -684.902954 0.356158 0.699126 0.619979
109.346481 -10.135107 -677.669434 0.321811 0.682240 0.656495
108.574654 -6.095647 -681.649231 0.356158 0.699126 0.619979
113.673363 -10.643554 -679.401794 0.327280 0.693834 0.641469
113.056084 -7.265751 -682.927429 0.348481 0.735683 0.580802
108.846046 1.884426 -692.220581 0.349414 0.789417 0.504709
114.368088 -3.188743 -688.440430 0.349648 0.712246 0.608647
113.238609 0.421377 -692.726990 0.344824 0.779048 0.523622
107.667336 -2.371207 -685.485779 0.407225 0.696224 0.591134
106.345001 1.172884 -689.389893 0.339549 0.817432 0.465308
112.250694 -3.445293 -686.898621 0.349648 0.712246 0.608647
110.919670 -0.159374 -690.395386 0.351778 0.768701 0.534182
120.890640 -11.657782 -682.168945 0.377836 0.716586 0.586297
119.893501 -7.818441 -686.262695 0.376306 0.739636 0.557971
125.241890 -12.814091 -683.729553 0.465592 0.651829 0.598618
124.120255 -9.134420 -687.551270 0.413554 0.707044 0.573639
118.739120 -11.713036 -680.852844 0.327280 0.693834 0.641469
116.914955 -8.817711 -683.240967 0.348481 0.735683 0.580802
118.720840 -4.119486 -690.281677 0.383610 0.727536 0.568801
117.628487 -0.861902 -693.926941 0.409493 0.752939 0.515169
123.089127 -5.626882 -691.575134 0.439609 0.732682 0.519538
121.520386 -2.899428 -694.079529 0.460726 0.723998 0.513380
106.283829 -10.395586 -675.992554 0.321811 0.656495 0.682240
87.812210 -6.403911 -666.664612 -0.384960 0.597351 0.703547
89.107162 -5.592458 -667.146667 0.209845 0.678909 0.703596
30.831633 19.106833 -692.266907 -0.179887 0.962923 0.201050
30.491642 22.003428 -708.410522 -0.184171 0.979015 0.087239
30.430841 22.230547 -712.042175 -0.141114 0.987801 0.065853
30.491444 20.742195 -700.048645 -0.200244 0.959064 0.200244
30.751093 21.499992 -704.144287 -0.176978 0.968172 0.176978
30.992395 20.135328 -696.553406 -0.200244 0.959064 0.200244
36.663670 19.802986 -692.032532 -0.072622 0.944083 0.321611
42.862236 19.811573 -692.145691 0.096275 0.930654 0.353007
56.362881 7.212395 -681.920898 0.585427 0.530969 0.612656
55.387383 11.936293 -685.536255 0.443403 0.685259 0.577767
55.004047 19.201309 -696.318787 0.279019 0.861318 0.424593
49.317841 16.920824 -688.379028 0.281853 0.845560 0.453416
48.189064 19.430664 -692.812012 0.196417 0.912761 0.358172
54.493969 15.644444 -689.611633 0.403346 0.793682 0.455391
53.433796 18.327591 -693.567749 0.256422 0.866950 0.427370
36.213661 22.974379 -708.217957 -0.140915 0.986405 0.084549
41.754650 23.572498 -708.536438 -0.025999 0.996615 0.077996
41.573380 23.745895 -716.758118 -0.060700 0.997214 -0.043357
36.130222 23.165464 -711.903992 -0.095214 0.995419 -0.008656
41.460762 23.764902 -711.958984 -0.095185 0.995121 0.025960
47.510315 23.697399 -708.246521 0.027679 0.987234 0.156850
53.329796 23.526173 -708.693726 0.091235 0.963041 0.253432
47.500568 24.037508 -716.878418 -0.024382 0.999670 -0.008127
52.831501 24.217607 -716.886963 -0.007874 0.999938 -0.007874
52.210167 24.079144 -719.843445 0.025159 0.997958 -0.058703
46.989197 24.000448 -712.137085 -0.024382 0.999670 0.008127
52.545074 24.049520 -712.446289 0.008640 0.993634 0.112324
36.435200 21.831486 -700.245178 -0.176978 0.968172 0.176978
36.309860 22.542395 -704.337952 -0.167840 0.977423 0.128349
42.353382 22.283854 -699.905273 0.009610 0.970660 0.240262
41.720791 23.093317 -704.370361 -0.066904 0.984441 0.162481
36.270615 21.059052 -696.496277 -0.069003 0.975902 0.207010
41.849049 21.440151 -696.650330 0.009610 0.970660 0.240262
47.941238 22.140968 -700.361450 0.049853 0.967151 0.249266
47.290344 23.162399 -704.759766 0.028415 0.975570 0.217846
53.525543 21.455479 -700.681946 0.164736 0.933502 0.318489
52.514034 22.840887 -704.961914 0.111832 0.965824 0.233831
47.045296 21.238306 -697.153320 0.120690 0.932603 0.340126
52.083031 20.501566 -697.452271 0.225887 0.891657 0.392329
32.529846 10.539991 -673.733582 -0.057103 0.810860 0.582448
31.995306 13.489286 -678.021606 -0.033237 0.853084 0.520714
31.667343 16.701326 -684.406921 -0.118266 0.935376 0.333295
31.352661 18.308233 -688.747009 -0.157807 0.957364 0.241971
31.489616 15.451253 -681.459229 -0.077591 0.875672 0.476632
38.516872 15.030222 -680.565247 0.054992 0.890863 0.450931
45.918491 10.681767 -676.604797 0.355171 0.723496 0.591952
43.961346 14.174333 -680.839539 0.207209 0.841026 0.499740
38.226204 10.620724 -673.982056 0.057373 0.791745 0.608152
37.276897 13.751008 -678.294739 0.010956 0.843611 0.536843
43.148441 10.429647 -675.045471 0.235975 0.757603 0.608567
42.407597 13.419053 -678.938049 0.230358 0.836563 0.497088
37.239708 17.215576 -684.717285 0.031716 0.919773 0.391168
36.645935 18.823881 -689.092529 -0.051585 0.938843 0.340460
42.832943 16.970291 -685.327393 0.172940 0.887759 0.426586
42.023018 18.902031 -689.553467 0.052602 0.936323 0.347176
49.953102 9.381226 -677.914307 0.501145 0.663679 0.555323
48.936981 13.113718 -682.116333 0.374295 0.761496 0.529175
53.622864 8.150735 -680.028137 0.577350 0.577350 0.577350
53.064434 11.792393 -683.497742 0.441810 0.709574 0.548916
47.015453 8.224766 -674.494019 0.378867 0.692411 0.614025
47.733707 16.171774 -686.127380 0.263594 0.815885 0.514635
46.012222 18.132805 -689.147827 0.172940 0.887759 0.426586
51.591743 14.415973 -685.853455 0.403894 0.742643 0.534182
60.722820 23.848946 -720.831787 0.372699 0.926424 0.053243
64.544487 23.351784 -720.389099 0.173478 0.969438 0.173478
76.147278 21.344748 -717.139465 0.050562 0.960675 0.273034
70.094772 22.295618 -721.148621 0.091235 0.963041 0.253432
75.479828 22.384619 -721.598511 0.049853 0.967151 0.249266
100.463127 14.327289 -710.249268 0.148778 0.904113 0.400556
82.052200 20.599926 -717.172424 0.141279 0.945485 0.293426
88.585304 18.512465 -713.829163 0.164736 0.933502 0.318489
87.486763 20.013096 -717.763367 0.120690 0.932603 0.340126
87.364929 22.440634 -724.101074 0.150362 0.867472 0.474218
81.109268 22.022854 -721.766907 0.050562 0.960675 0.273034
86.507515 21.665043 -722.093567 0.095064 0.940077 0.327442
93.839890 17.546150 -713.889648 0.192352 0.916498 0.350759
92.791061 19.382853 -718.242615 0.170422 0.920276 0.352205
98.968788 16.792967 -714.361267 0.125105 0.875735 0.466301
97.656685 18.602417 -718.422729 0.198875 0.900785 0.386051
91.620407 21.226984 -722.163452 0.118266 0.935376 0.333295
67.302841 17.764530 -701.234985 0.225887 0.891657 0.392329
71.418564 16.984303 -701.384277 0.054992 0.890863 0.450931
77.600967 13.631948 -697.299622 0.128754 0.854459 0.503311
76.687080 16.366879 -701.959167 0.176544 0.882720 0.435475
63.644848 5.476747 -685.065674 0.210229 0.556489 0.803818
62.798595 10.802207 -689.185364 0.298450 0.661780 0.687732
66.818375 6.260888 -685.786255 -0.105460 0.691348 0.714784
66.498016 10.279469 -689.661987 0.105460 0.714784 0.691348
60.388458 6.294801 -684.252441 0.431124 0.509510 0.744669
59.837711 10.681050 -687.392517 0.444366 0.605954 0.659817
68.864143 4.889911 -684.059509 -0.237296 0.686910 0.686910
60.913082 14.727757 -692.609924 0.323966 0.764559 0.557221
59.939957 17.920027 -696.983521 0.279019 0.861318 0.424593
65.897461 13.771806 -693.829834 0.210229 0.803818 0.556489
64.793610 16.980143 -698.004028 0.228353 0.853319 0.468724
58.980152 14.449754 -690.993835 0.376306 0.739636 0.557971
57.630241 17.365019 -694.603516 0.256422 0.866950 0.427370
72.237679 7.358451 -685.983643 -0.129753 0.837499 0.530810
71.868446 10.247789 -690.300720 0.033670 0.819294 0.572384
78.036804 8.019130 -686.668579 0.031716 0.919773 0.391168
77.293571 10.145108 -691.057190 0.078405 0.884852 0.459227
72.615509 6.487139 -684.688110 -0.181223 0.785301 0.591996
77.678795 6.955737 -684.354126 -0.052211 0.929355 0.365477
71.307259 13.307389 -694.778320 0.129753 0.837499 0.530810
