# .PCD v0.7 - Point Cloud Data file format
VERSION 0.7
FIELDS x y z
SIZE 4 4 4
TYPE F F F
COUNT 1 1 1
WIDTH 1496
HEIGHT 1
VIEWPOINT 0 0 0 1 0 0 0
POINTS 1496
DATA ascii
-69.842094 -62.796967 -668.83337
-44.999607 63.587955 -665.13556
-72.822906 74.643143 -680.90692
9.1782503 28.794218 -651.5014
-42.28442 52.531464 -665.73944
-91.613998 28.519844 -736.95947
-82.32486 -30.05512 -684.53363
-8.2206173 -45.329784 -647.59216
-87.839722 -32.404892 -710.42712
3.1481273 62.42392 -662.79895
-78.154747 -1.1208959 -667.82324
-46.808544 88.810188 -667.16278
3.3985674 -51.687889 -653.69916
-50.232605 112.2862 -683.86908
-90.556602 -15.763742 -731.66669
-74.876518 -62.709297 -721.2005
-4.3217058 -47.482674 -648.98309
-81.466789 -13.877027 -680.26343
-88.313728 83.406136 -710.83899
-40.46294 -24.529953 -648.86499
-93.457436 -2.1436946 -703.59619
-40.838749 -57.837837 -645.03601
-91.337814 42.33271 -718.79675
-68.531097 7.4210529 -645.79431
-73.214577 0.69207937 -664.68237
-5.5896897 109.32107 -680.41498
-87.107635 -23.947662 -736.58612
-87.579086 29.140638 -715.42157
-56.935898 -45.252193 -652.37207
-79.307388 87.008064 -694.14166
-90.047462 10.696913 -753.21893
28.460089 -8.6774702 -663.61963
-54.207298 116.68007 -691.92499
-9.1409416 62.561958 -658.19507
-3.5281689 119.44677 -689.28894
-87.047783 -32.108196 -730.42493
-78.984451 27.634901 -694.24188
-14.565393 117.60221 -684.12207
-97.634293 54.79361 -722.51703
8.6388149 39.015301 -655.46252
-88.550316 -13.571561 -691.97571
-29.90799 5.5112076 -644.78436
-59.754185 101.57322 -682.24695
-90.82312 63.113846 -750.35876
-93.283867 49.429443 -712.40503
-47.565613 16.034298 -655.72693
-50.753872 63.765881 -665.2832
-9.2762012 112.35782 -681.66248
-41.942135 -31.577307 -647.04657
-73.696182 81.775551 -684.92401
-96.687874 10.377527 -728.1239
-2.7908061 19.946037 -646.00757
-89.765358 39.203316 -713.46478
-89.158165 7.8117275 -695.86877
-67.984344 -69.742882 -668.23694
-72.598167 -25.58877 -661.20978
-61.848736 -73.017372 -662.07666
-55.963585 2.1392496 -650.49939
-44.02306 -68.769661 -647.85919
-32.243183 118.91457 -683.54138
-87.806992 23.899088 -706.83215
-72.237007 -67.388741 -684.57983
-97.143105 53.604881 -718.77448
20.947453 40.814785 -661.65973
-59.861237 -28.874022 -652.58209
18.947605 8.4732513 -657.7135
-29.391117 101.60603 -671.32629
30.176264 2.3902111 -666.64178
-64.564339 111.93871 -695.61945
-37.892517 75.362709 -658.52777
-79.217476 94.297684 -698.36053
-73.853127 -37.481705 -669.85559
-12.46791 83.006187 -663.95203
-70.989922 75.612457 -679.74994
-45.109993 40.574162 -668.57831
-37.42712 88.672462 -664.93536
-72.849617 -50.516087 -674.50372
24.780317 26.678236 -661.61072
-95.120491 47.746513 -733.94952
-84.303223 92.412735 -706.78979
-95.336227 46.550098 -721.27283
-75.07885 10.398637 -638.72742
-63.620811 -11.663633 -650.74548
-41.373112 -68.789024 -647.49493
-64.190407 -71.014 -662.64838
-45.722588 59.626862 -669.67224
-77.092659 110.16298 -747.83264
-29.125105 -27.879604 -646.57855
-12.961281 19.191109 -644.82391
-91.560196 -7.2191505 -697.37555
-56.260498 10.05708 -644.21362
-69.273804 -41.784492 -661.55927
-28.846334 32.907822 -654.76385
0.92973846 9.9032717 -647.27747
-47.689064 -4.1274891 -649.17682
-5.3335457 -28.275698 -645.61603
-91.303291 -14.088241 -712.57092
-76.567749 12.262969 -677.89557
-43.000862 -30.428932 -647.14673
-88.695122 87.05349 -738.55914
10.926613 67.270653 -667.38934
-75.026184 32.796951 -652.21472
-62.192886 -20.875046 -650.66235
-57.659771 86.283356 -672.41467
-66.25647 68.301125 -671.60419
-24.143049 98.472206 -670.31055
-52.275898 40.616962 -671.04565
-24.745823 106.53201 -674.20123
-91.760185 -7.314939 -697.96851
-65.770508 -61.822174 -660.9082
-47.432323 -4.1216493 -649.17108
12.391639 42.084393 -658.25262
-90.439301 41.467693 -716.85577
-90.311928 43.264137 -713.64185
-3.1787446 42.445412 -656.74811
-86.602249 93.726791 -717.06036
17.865126 -29.78882 -656.71301
-89.288689 -2.5775189 -745.77545
7.9413533 102.92707 -681.82544
-73.433838 27.213329 -682.35541
-59.01865 80.203415 -669.43378
7.8608289 92.769646 -676.49835
11.709934 -22.596371 -651.83447
-48.008518 113.41181 -683.60297
-73.42926 -54.448635 -739.61841
-28.959667 -23.697647 -645.1236
-81.880539 14.58298 -690.24768
-87.036407 -28.509027 -694.70502
-74.21109 -56.366627 -735.17664
-89.726234 80.692406 -717.74316
-75.86306 58.621777 -682.1015
-88.912537 20.036438 -705.06689
-7.0796328 81.798935 -664.87549
-78.285027 68.708061 -682.31787
-88.998077 -26.246065 -710.23535
-29.727093 97.6474 -669.44116
-57.641037 -26.995768 -652.33051
-29.815897 103.66808 -672.33539
-49.215172 -48.421223 -649.18799
-64.770912 115.10999 -699.91608
-59.633564 -63.171886 -653.81201
-1.2664957 102.07837 -677.32239
12.493973 35.805759 -655.40918
-88.285637 26.293484 -714.67487
-73.687691 11.423579 -638.70447
-74.451279 36.64238 -693.40472
-88.451859 87.174377 -740.83771
-64.517723 -57.862545 -660.27478
-74.143234 36.977379 -656.48529
-92.548027 24.553457 -736.12671
-96.938141 8.492733 -723.00903
-86.653717 94.679024 -720.1593
6.8181438 59.29314 -663.53943
-80.659042 56.74757 -690.52472
-60.572067 -69.171494 -657.00909
-83.155212 95.272636 -752.6897
-17.255083 -11.022427 -643.73346
-74.077232 -35.248138 -680.00208
-44.726601 -33.379574 -646.6377
-81.792648 -45.953304 -692.33704
-18.266424 99.481575 -671.74487
-89.642525 -6.5569735 -741.3703
-81.376373 58.886211 -688.42487
-68.614937 -54.735104 -667.35242
-74.221153 -27.26613 -665.23328
-88.09079 -31.015835 -727.22845
-57.694141 32.516838 -659.89868
-16.597525 -38.038906 -644.9201
-85.078911 -38.703926 -696.12433
-4.1832414 93.003693 -671.65118
-39.320393 41.409588 -664.4281
-75.221359 -29.281918 -670.31665
-19.032345 17.331537 -644.67401
-60.980339 113.8371 -694.32483
-68.042786 -46.712711 -662.99823
-47.561718 -21.138445 -646.91443
-67.722443 76.38253 -675.8573
-89.250069 69.333176 -755.97083
-12.888067 75.954529 -659.27667
-10.299553 45.676556 -659.26196
-95.44017 -2.7703345 -725.8288
17.706669 17.680618 -655.9845
-94.208824 -3.94331 -711.76544
-74.19136 -25.42363 -663.85236
-90.115379 64.089043 -753.45422
-4.3585668 102.07971 -676.21954
-68.439781 110.15311 -698.07684
-96.965355 53.860073 -726.2019
-42.823952 29.362135 -660.74597
-57.672935 -6.7768211 -648.93201
-60.85099 -42.956055 -653.97607
-12.725049 21.272093 -645.14227
-85.2314 -23.696884 -688.12128
-85.051804 38.037014 -699.0509
-19.989624 21.451115 -645.6496
-89.734314 74.165459 -749.40179
-62.53965 -57.039001 -657.52368
-97.668427 55.706173 -719.10406
-77.764702 111.80444 -721.19873
-76.934059 9.2349768 -679.79095
-86.296806 31.124603 -710.26984
-76.611443 27.092596 -667.52417
-20.73361 95.385948 -669.32373
-47.856411 -50.38858 -648.63495
19.944368 -42.676857 -662.95966
-18.971519 80.215157 -661.07977
-46.939232 -33.236267 -646.41003
-67.49395 -69.76947 -667.11914
-95.949654 47.902084 -730.17682
-80.503792 4.7904983 -643.75293
-15.091491 100.45164 -672.74835
-95.125519 60.871914 -729.75885
-78.055847 109.13093 -746.39276
7.6946864 -44.631519 -653.35925
-16.601963 5.1312065 -643.71637
-89.995277 63.164303 -697.0036
11.021523 -21.601772 -651.38074
-89.208939 76.492081 -705.58643
-75.113365 -8.1118431 -666.44794
10.149412 -48.55764 -657.27216
18.298868 71.270958 -672.20081
-95.384659 61.689175 -716.25366
-88.920013 28.417322 -722.89294
-92.225082 -7.5214291 -735.00262
-69.749229 49.572327 -690.1059
-83.414444 58.055447 -692.22485
-52.33979 35.722961 -666.08795
-45.438702 -41.439064 -647.0058
-94.445183 10.135621 -709.61273
-6.6111045 -11.065757 -646.63678
-89.880257 68.248566 -752.69891
-78.886925 2.1079972 -671.80963
-96.257141 53.766308 -729.65039
-80.680351 6.2092872 -670.60608
-24.558321 115.92353 -680.91412
-24.223381 -37.999634 -644.88391
-83.218246 7.7875948 -648.89801
-71.104836 -44.618095 -666.88165
-85.190895 -39.153667 -728.60529
-60.548485 -51.947754 -656.28632
-90.555489 -20.970572 -717.37213
-82.08078 -52.645573 -708.44464
-82.814377 -51.477787 -713.22858
-85.045036 57.02866 -696.15955
-27.445423 11.635382 -644.92932
-81.99839 -41.818718 -689.75177
-93.393349 5.1286626 -704.18066
17.142069 43.011742 -660.63287
-51.722115 80.957939 -664.48425
-84.032837 -39.71566 -692.59277
-57.901737 31.62607 -658.99023
-83.099281 15.789385 -645.57166
20.351171 -39.620838 -661.76337
-91.533623 20.319248 -713.2074
27.343138 7.6207681 -664.42432
-24.873062 -38.925949 -645.01575
-81.531891 106.89633 -727.25543
-16.549568 101.42721 -672.9834
7.475924 80.768921 -671.08862
-9.1676054 33.419212 -649.28223
-19.536055 69.044655 -655.7757
-72.312958 -38.47044 -663.47656
-63.113708 -56.858112 -658.43097
-36.285393 67.36451 -660.03992
19.125515 43.987125 -661.98669
-76.495033 -42.152946 -683.68121
27.678429 35.683056 -665.38385
5.1488357 34.164913 -651.92615
-84.0756 -42.067291 -728.17047
-56.351135 -59.153809 -651.11725
-79.688042 -56.528481 -717.40387
-57.986607 105.69623 -683.91174
4.7892799 -31.384552 -648.93756
24.243134 -41.804451 -667.05896
-28.332104 105.80972 -673.44598
-2.7191911 39.292057 -653.85919
-75.202858 -63.068489 -696.79041
-76.208466 -19.262064 -666.87421
-85.226562 99.037415 -731.05066
-76.67981 18.301167 -675.77222
-20.033739 5.2126293 -643.40173
-80.956322 35.794708 -697.83936
-20.896915 105.58857 -674.3266
-9.7008038 96.217056 -671.65332
-33.696186 62.316982 -661.35248
-12.827934 -52.235661 -648.00269
-63.570568 -24.713478 -652.46326
3.8786101 71.698914 -665.76965
3.0727153 27.079929 -648.62531
-13.078173 8.184576 -644.33875
-94.345108 59.881599 -734.81848
-19.011761 100.55387 -672.09973
0.69322437 17.966909 -646.84625
17.125683 -14.455346 -654.7713
-93.154671 63.584103 -706.38928
-60.187061 43.036995 -667.74823
-81.394928 22.859694 -647.40015
-61.716576 114.03344 -695.24304
15.801251 72.489395 -671.2807
23.877901 -14.590235 -659.3114
-85.231583 97.721107 -716.45673
-30.619949 105.84026 -673.46106
-58.377213 74.144913 -666.46649
27.183731 8.6768875 -664.4151
-61.571556 71.21225 -668.47144
-92.384438 -12.716514 -727.90131
-43.161976 66.55027 -662.38452
-74.121635 60.605446 -679.81
-72.997963 1.6219721 -652.70435
-2.6507888 21.983273 -646.24536
-68.645309 65.352051 -672.84113
-86.235992 92.593605 -713.00079
-77.02282 -46.062305 -742.03192
-94.341728 64.733284 -718.27893
-71.758438 53.618542 -679.88763
-39.699932 80.732567 -660.75043
-89.241562 74.303963 -751.69061
-53.215118 -2.8748763 -649.67462
-77.945564 -51.001015 -688.28326
-73.732391 76.682083 -682.19482
-70.599991 29.86869 -649.61023
-80.562546 27.774931 -696.12762
-4.3273125 10.083674 -645.96729
-89.125717 -5.5453091 -743.4483
-92.638893 61.052696 -741.75391
-76.82695 0.12301633 -678.01776
-65.58847 25.709639 -648.27069
-33.739956 -32.644733 -647.0434
9.4803095 64.486298 -665.96906
22.955627 -33.72496 -662.0246
-92.685875 24.734011 -740.94159
-75.149055 31.947853 -651.33655
-73.578079 54.580399 -682.98474
-79.845131 -5.6505232 -680.73138
-18.040241 -51.060478 -646.30597
10.678829 97.83651 -680.20251
-1.0950786 14.065306 -646.4549
-11.993129 63.757866 -657.20496
-58.475769 -29.845974 -649.42773
-67.012383 -74.399063 -689.60315
10.048951 0.79871714 -651.27118
-30.931623 33.994747 -656.17963
10.05136 0.79929829 -651.27246
-89.807411 -24.14452 -714.47827
-12.806868 13.173827 -644.38367
-96.053535 11.367111 -716.93494
-67.565971 22.65568 -644.79816
-47.034103 -47.335491 -648.14258
-70.989372 32.387695 -682.96375
-22.9118 -19.897587 -643.2439
-81.707352 -45.892887 -692.01312
-55.265163 -49.139778 -652.34778
-73.249344 -0.27384788 -659.71619
-35.635059 55.344414 -660.33856
-51.646946 3.2603252 -650.93536
-9.0419884 65.672691 -657.73669
-80.08136 -38.807274 -686.73737
-93.364746 -9.801899 -722.96948
25.75337 -3.5051858 -661.65497
-68.650009 -69.605164 -669.76544
-34.828377 72.350838 -656.87274
-66.738739 0.45996422 -648.6864
-48.610901 6.1919212 -652.13025
-16.883629 92.392532 -668.44434
-68.697296 53.373791 -671.76013
-73.424614 -65.266273 -689.17102
-94.771248 59.016041 -733.22833
-83.385933 98.165741 -746.62787
17.339525 -7.408813 -655.13922
-84.852745 95.568413 -711.01904
-74.444489 -13.303617 -662.55652
-67.333702 -26.654385 -656.88605
-64.732597 -69.888123 -662.32904
-79.915894 -32.799854 -745.8501
-86.955635 86.281792 -749.56934
17.294506 43.13026 -660.75812
-90.455124 -20.993883 -716.25934
-51.248035 -3.8227131 -649.44781
-17.609447 104.61937 -674.43311
-14.221262 -43.202148 -646.06287
-82.069931 -15.752345 -680.80872
-83.430122 65.000092 -687.80548
-84.940506 -9.5825043 -747.94904
-91.019218 72.241333 -743.85144
-74.567184 12.531768 -638.72363
-52.806423 54.992546 -673.13098
-77.797928 26.950655 -647.31628
-85.062134 98.730759 -717.823
-81.784752 6.0006633 -652.11023
-92.674019 11.128277 -705.60645
17.898018 -20.470909 -655.44598
-91.909142 36.935757 -741.20886
10.388758 63.459064 -665.98975
7.989552 -48.410034 -655.24481
-87.853477 90.206291 -736.01776
0.77808952 -16.135262 -647.59668
-36.574291 52.450039 -660.26117
-48.342484 7.1268992 -652.70337
-5.0377245 116.47153 -686.19818
-67.770004 -68.608147 -726.66925
-66.247322 98.825066 -686.15454
-82.133247 33.992863 -699.58929
-82.910355 -38.848015 -689.86639
-82.120171 20.245422 -659.44476
-90.505005 -22.004879 -718.79596
-69.397789 -68.492584 -670.8905
-51.220005 48.914089 -674.82617
-15.641435 -42.134365 -645.71362
-74.728973 -56.429127 -733.97369
-91.018181 79.15197 -736.55243
-90.367577 -18.692543 -729.70789
-91.264816 7.7447076 -749.43518
-42.848095 -67.533821 -646.94476
-93.242966 61.508499 -704.9577
-34.030231 -45.630386 -645.64691
-16.826965 -32.097973 -643.74426
-91.069107 9.867938 -750.53638
-90.379196 78.126648 -742.29132
-2.5763817 39.416981 -653.9726
12.931499 26.832714 -653.05878
-14.840603 1.2988716 -644.11017
-68.449768 -8.5516758 -652.73151
16.917833 21.829964 -655.15625
19.902931 -46.638107 -665.33716
-59.337803 -21.723211 -649.08301
-57.545166 53.157528 -671.24097
-82.735664 26.987196 -698.89032
-4.531364 123.84991 -693.37085
-88.61483 -32.021545 -720.07123
-96.0298 53.726604 -714.57593
-86.899612 -29.554396 -695.005
-88.254692 -30.834463 -726.6759
-46.814079 -65.498177 -646.83661
-64.898567 -29.684767 -657.03644
-85.122543 -41.391155 -703.04962
11.153284 53.392429 -663.27332
-82.918198 17.73661 -694.82916
-95.937012 2.4130561 -715.35779
-55.975552 45.943241 -673.19171
-88.810432 27.423792 -720.42474
-10.152813 41.699383 -656.61145
18.828905 -7.5276093 -656.06372
-42.938908 -38.305294 -646.61346
-75.510704 -61.911568 -694.38354
-41.557518 35.345612 -663.55249
-90.381187 51.255516 -754.35858
-51.690495 39.946838 -670.72595
-89.556969 35.588478 -724.07849
-78.380074 74.901268 -685.00043
-22.017424 111.72992 -678.03333
-93.628174 20.759134 -740.45563
-16.252182 48.846828 -659.18195
5.0521984 37.177658 -653.51221
-95.742188 -1.4405115 -727.53687
-90.919167 79.132751 -737.59033
-85.802353 94.24099 -741.55103
-30.247007 43.183453 -660.15332
-70.494843 -70.136826 -693.91809
-81.057472 46.038189 -696.08221
-90.4589 -19.847847 -728.14612
-73.388138 -0.33617574 -644.62976
-76.079208 -63.772724 -712.15466
-68.42868 5.4817653 -642.68646
-88.072372 40.236126 -704.45538
-10.829978 -5.8381886 -645.46765
24.191626 -18.51074 -659.61078
-57.761467 8.2962999 -644.17902
-67.099083 -32.595325 -655.14264
9.2922382 33.092651 -652.97827
-70.999306 46.409996 -668.23187
-89.069107 -2.2372694 -746.47986
-75.05101 84.076866 -687.57709
-83.378998 8.9731073 -645.80042
-76.579254 94.295273 -694.74213
-75.977974 35.87817 -694.37939
-89.317894 31.099325 -756.03784
-65.615303 -0.57426482 -649.05023
-80.378136 39.004539 -695.38031
25.410103 -32.656197 -663.83295
6.5340805 41.294453 -656.29633
23.313242 38.897633 -662.52704
-91.74781 58.495934 -701.90942
-90.797707 -20.735937 -723.68994
-73.360092 75.791092 -681.64789
11.36692 18.935076 -651.46429
-9.2909994 -41.108154 -646.45184
-8.1362524 98.351532 -673.11389
-89.141159 28.063362 -756.88745
-38.697849 41.408478 -664.01886
-64.412857 -41.604126 -656.74634
-44.895115 49.886238 -671.56738
-76.274605 -22.154919 -667.85901
-67.106682 -73.024452 -712.81964
-71.159142 -69.950554 -700.54913
-61.926136 39.906273 -662.35266
-79.415657 94.319489 -698.66565
-73.544067 4.6125593 -639.98444
-50.426392 -4.9101944 -649.02826
-35.571949 105.11662 -673.40277
-34.632038 102.8937 -672.19537
-84.744392 29.189053 -705.05426
-7.6560516 -14.050916 -646.04956
-41.083157 -16.223303 -646.16449
-33.49255 97.88372 -669.62543
-92.269829 67.726334 -707.36523
-91.768593 44.126766 -746.36688
-82.187485 -13.693764 -682.16565
-83.672935 -20.551668 -744.67914
-79.177727 1.399565 -681.7981
-68.872795 -72.257187 -692.4632
-5.2505741 46.70401 -659.94482
-90.996582 70.697136 -705.02844
-77.946434 -45.032497 -741.25891
-80.055809 -42.955563 -738.71356
-84.935265 26.171253 -702.35822
-11.628244 -21.937853 -644.46906
-91.54953 64.228241 -746.40442
14.14851 71.470703 -670.20129
-93.751511 66.937141 -721.22015
-74.52758 26.975594 -646.27411
0.18628372 91.125626 -672.60193
-87.972168 -29.257061 -701.40936
-45.23074 81.940224 -662.28992
-22.333502 92.536064 -667.81128
-0.77892458 67.810432 -661.76434
-95.857056 46.797779 -723.61432
-13.249423 52.82576 -660.37897
-19.339403 -43.832924 -645.41339
-59.547157 74.287766 -667.2959
-84.269203 88.594925 -703.5705
-68.175194 80.786125 -679.24707
-0.31799999 -47.34679 -650.1662
-57.123356 40.931026 -669.513
12.543721 21.822557 -652.23755
1.6978987 39.372177 -654.30316
-92.045242 0.75051802 -743.03607
-57.068081 98.685638 -678.55286
-93.330284 -5.7893057 -707.01312
-43.854927 74.699852 -659.54077
-96.498047 3.4465373 -719.59662
-96.644768 5.7281847 -730.52094
12.672597 -9.3629847 -652.36725
-84.972992 12.769081 -693.32379
-11.640422 13.297382 -644.50665
-91.41777 25.071909 -748.82648
-28.799622 73.445786 -656.59119
-88.809555 78.536293 -706.1756
-51.664314 23.427055 -656.72382
-35.414055 80.650078 -660.30615
-32.904861 65.340111 -659.39832
-7.0510592 -1.853907 -646.30695
-14.768768 101.46957 -673.3587
-78.785553 110.10464 -739.80804
-88.436226 26.370985 -715.76221
-88.52108 3.8167336 -692.79346
-45.403774 42.650188 -669.53815
-86.981842 -34.360897 -705.4953
20.080873 48.102325 -664.35358
-74.279686 -65.798103 -701.53162
-94.696068 0.63911527 -736.43652
-17.24444 113.76103 -680.4906
-91.212791 15.885037 -751.61438
-81.097191 103.35774 -746.19202
9.8050394 -17.344595 -650.67078
-54.556496 85.339134 -669.26929
-81.165421 11.695123 -686.90222
2.7684736 -26.178677 -647.75208
-43.008663 -1.070734 -649.7301
-38.696087 64.659279 -662.97369
4.0203733 -22.257835 -648.15308
-64.725815 106.96402 -690.84454
-6.391912 -36.138699 -646.14124
-32.017735 40.338173 -659.75049
-89.652771 -22.979805 -711.72131
25.529411 24.891422 -662.26007
12.896436 -53.545471 -662.53156
14.093846 -47.565456 -660.03204
28.798887 -22.558853 -664.46405
-82.640114 -51.538109 -709.16986
-56.283375 1.3454369 -650.34735
-81.369904 25.199255 -652.64264
-86.51236 -4.2172618 -749.47766
-94.619507 17.582129 -726.46899
-44.448383 48.81889 -670.45453
-83.771065 -49.291107 -712.89435
-76.365829 5.6227264 -639.89825
14.995035 -33.522373 -655.35492
-7.03232 -30.173981 -645.38751
-53.055466 -52.065933 -650.79028
-57.137703 57.093277 -669.84619
-32.099857 116.22571 -680.77454
-75.104156 -2.7833421 -673.26434
-4.1359773 -7.0630302 -647.07214
-24.195623 -46.848976 -645.51471
-29.75721 -59.71611 -644.93311
-93.007919 -7.7445035 -710.02246
-88.286369 40.253986 -705.16785
-86.468452 -24.670685 -737.57751
-62.612511 52.307575 -669.25055
-19.931297 64.057838 -656.36176
-48.079098 9.401947 -653.24921
-94.371445 4.299191 -707.22559
7.2203231 -15.285943 -649.52533
-32.961967 -14.467373 -644.39008
-3.2919996 117.58005 -687.67749
-73.990219 -39.227386 -673.03204
-64.566978 34.974545 -656.96094
0.1568535 -57.347752 -655.02002
-95.45636 5.800148 -737.04883
3.6563234 76.886574 -667.78235
-86.030518 11.831001 -694.15564
-66.855705 -35.628315 -654.18811
18.012981 53.27702 -665.6615
-24.435318 106.75863 -674.37018
-59.819096 76.441925 -668.06427
-0.15099494 6.9712319 -647.06287
-54.75198 116.01359 -691.54407
7.2797666 11.016762 -649.45575
-50.589993 113.79243 -685.72803
-86.577705 0.91176337 -753.97308
-4.8745341 99.420486 -674.57629
-4.7970729 35.470699 -650.64276
-55.543583 21.462772 -652.90546
-38.646801 -69.538193 -647.77606
-89.988441 29.704031 -730.59753
-15.590512 3.2518091 -643.90308
-86.260727 -29.666618 -735.01544
-82.846008 100.83566 -711.73798
-77.307686 5.0170803 -656.82202
-92.84761 -9.8297482 -716.82605
-53.005562 79.194244 -664.44489
-44.946842 76.958626 -660.42688
-74.37912 27.593641 -689.84344
7.9596043 34.100815 -652.88818
-86.836784 40.350212 -701.36292
-76.879791 56.984398 -685.04291
-82.931557 -15.471883 -683.22174
-4.1261129 -0.94188845 -646.86194
20.460873 41.076477 -661.49481
-65.23098 -11.424212 -651.62006
-93.402618 43.761913 -721.25848
-10.906117 94.472496 -670.57288
-40.814156 57.782463 -664.9209
-91.312035 70.675293 -707.11987
18.059713 -7.260891 -655.61206
-80.303192 25.297945 -658.47223
4.4854779 -1.972941 -648.75537
-90.99836 -17.623379 -727.8996
-91.857483 63.277992 -745.0672
-35.356224 30.337021 -657.42474
-73.6605 -34.056026 -672.94812
-78.436958 -30.867937 -681.16107
-29.474167 -25.554483 -646.37408
-61.38662 113.04559 -693.8222
-80.78952 25.35391 -656.75616
-66.482765 79.570007 -676.54419
-27.476547 1.6389706 -643.99713
-90.846237 39.25489 -749.64111
-90.985092 70.736763 -705.04309
-67.190178 6.6570277 -645.30005
-80.786491 101.78098 -707.70404
-91.548981 28.877312 -736.90894
-77.669815 104.55992 -705.14551
-85.329758 -45.117367 -715.70776
3.2444105 70.704636 -665.04382
-87.498543 86.738525 -711.65509
-78.757347 -57.553047 -702.36255
-88.992699 86.040695 -722.06647
-86.328659 -41.111115 -711.53613
-90.024658 36.123566 -753.59351
-18.222778 26.584496 -647.22595
-88.833221 82.365891 -746.24792
-65.602638 -65.552834 -735.80157
-6.8955135 105.48544 -677.48157
-27.491383 74.313225 -656.72925
-84.748062 12.980838 -693.20105
2.6413298 96.190331 -675.96411
-83.756035 1.6584144 -685.9588
-91.373627 46.329945 -749.31659
-33.101479 -49.690594 -645.40265
-73.697647 -64.018959 -687.92371
-50.574913 -72.260551 -653.85181
-81.423332 -48.995583 -726.8222
-75.134842 95.224998 -693.50714
0.24784613 45.675468 -658.91797
-71.282516 40.562561 -673.72473
-95.719627 9.8861809 -736.53198
-22.593246 34.821568 -653.07092
19.161211 74.526054 -674.0351
-68.392426 38.525402 -680.60974
10.268973 53.576717 -663.07214
-90.599785 31.172695 -750.00806
-79.076553 3.1124949 -658.81085
29.65229 30.93416 -666.62823
3.4741635 112.57218 -686.21155
-76.755043 -62.520973 -707.34149
-1.0883774 115.54564 -686.67487
-75.471024 -51.917828 -683.41003
-84.015312 63.28326 -688.54858
-83.139175 69.303642 -687.87952
-84.168243 -34.690102 -736.34052
-76.009682 21.492771 -676.11407
-84.06134 51.189972 -700.18097
-80.237793 102.54111 -751.81622
-66.450401 111.24879 -696.9776
-83.169472 103.27846 -733.19202
-92.312119 22.714134 -730.61176
-9.2303181 89.208054 -668.04352
-69.197647 15.605435 -640.05597
-11.271876 104.57144 -675.81458
-97.502235 53.071857 -723.19482
-78.083183 -51.879253 -689.49982
-42.795761 116.66276 -684.38239
-88.864326 24.454681 -712.72101
-54.597218 -53.987907 -650.96436
-69.697365 2.7779768 -647.78296
-73.422592 -0.27940118 -651.07574
-75.326416 -52.086895 -739.08484
-59.189674 93.639725 -677.65051
-25.138716 20.700506 -646.56952
-85.147247 -40.025578 -727.65265
-1.6085247 7.0323429 -646.74231
-78.880989 -25.712086 -676.39789
-2.0368202 20.205862 -646.19427
-75.776901 20.409157 -678.20312
-37.619228 92.912582 -667.36273
-82.322418 18.069712 -645.35779
-76.720291 -29.91597 -677.83044
-85.933945 90.349571 -748.63397
-79.125282 6.7968392 -641.05994
2.7031076 8.0632143 -647.83459
-66.630455 102.03356 -688.66486
-65.212456 114.4368 -699.53699
-56.615852 -36.878197 -648.66431
-25.386457 70.372307 -655.96594
-90.976784 34.792782 -731.45471
-65.063675 29.801664 -652.73413
-65.751617 -37.60075 -655.02173
-14.081967 59.045532 -658.81421
-10.550736 5.3369966 -644.98254
15.601897 79.655708 -674.21594
-36.092365 101.03118 -671.34338
-83.363304 46.118866 -697.17065
-68.024872 65.658974 -672.41754
-9.6183586 76.190002 -660.91949
-96.065231 12.857824 -732.38098
-78.055023 3.1371305 -658.12054
-85.017967 -37.459095 -694.11761
-41.766685 29.428825 -660.3656
-86.531441 -37.192833 -707.26245
-22.914516 -35.61248 -644.42902
-33.232384 29.263208 -655.61627
-80.842972 106.22883 -740.47852
-94.051857 18.71804 -721.53052
-76.72113 -10.885953 -670.34735
-68.161774 -65.428284 -665.39795
-62.90826 -40.554642 -654.92798
-50.600655 56.208317 -672.56342
8.1044884 104.19799 -682.68719
-91.000175 -6.0413966 -695.61285
-74.029694 -34.889153 -676.39093
-90.955139 46.369392 -751.49768
-72.197563 3.9479892 -662.89825
10.429327 9.9240847 -651.19415
-96.676193 55.824745 -713.79022
-93.972916 2.7386112 -739.97278
-66.924164 74.708488 -674.10645
-23.917463 80.535355 -660.94592
-71.979889 -53.142525 -673.92236
-79.645538 105.49004 -748.00488
27.110043 -33.605408 -666.05078
-91.353439 41.846928 -719.67059
-72.518951 37.372208 -672.21991
-68.409073 97.049019 -687.15558
-81.919884 23.298628 -649.2691
14.386745 -40.379494 -656.96021
-30.307068 -26.486977 -647.55646
-74.440468 99.402878 -695.26508
-37.941055 97.173027 -669.57874
-20.052263 73.221123 -656.01855
-73.837463 36.423058 -670.17828
-89.364784 38.557407 -710.23016
-47.296764 -2.8347113 -649.69922
-51.003559 -14.737235 -647.25897
-90.920433 50.406525 -751.66101
-91.264656 20.475721 -712.58173
-9.7858353 20.543653 -645.08936
-47.632427 116.84524 -687.3941
16.529499 -22.29357 -654.61877
-44.593407 -18.086111 -646.71277
-74.389038 56.828274 -681.63135
-81.168129 -53.158474 -719.70831
-88.514969 44.37109 -704.32251
-80.335228 -22.688416 -676.94904
-45.341034 0.29718834 -650.76685
-82.036896 49.28133 -697.56909
-90.924385 71.749283 -707.11224
-68.205757 -73.065163 -699.48712
-60.328865 85.518326 -674.37335
23.294245 48.161518 -666.19489
-82.736153 68.312134 -687.21326
24.757166 47.273037 -666.75018
-67.413284 59.598621 -671.25677
-10.199347 -34.861687 -645.25531
-87.481972 89.355492 -742.60278
-83.804039 13.350891 -658.81268
-84.064545 -24.487797 -685.11884
-80.06292 -10.623068 -678.82379
-49.566765 56.207043 -672.56158
-76.407242 -25.999672 -670.35425
-12.188093 97.422188 -671.72803
-89.454681 25.624798 -721.4115
-71.149727 -55.269478 -672.82581
-73.957634 -34.886414 -679.95538
9.8984795 89.934586 -676.04834
-95.564255 -2.3947358 -725.08722
-81.233589 -24.729753 -679.85187
-95.58741 61.137703 -723.87915
-77.713684 101.60168 -701.77625
-19.295868 80.478592 -661.26263
-37.334869 3.1473188 -649.41492
-84.362579 15.041155 -694.56036
-20.230068 -3.4723153 -643.47559
-66.010582 -26.315886 -655.07446
-38.744839 -49.31797 -645.77271
-29.242588 74.558998 -656.96301
-77.668968 -55.750122 -694.13831
-71.001335 4.8181767 -641.25116
-8.6112986 121.96287 -689.9408
-39.145004 105.33954 -673.92767
-73.381294 39.41037 -658.91071
-71.503151 -2.1120062 -652.80408
-36.57143 101.15667 -671.46442
-58.049385 3.601372 -650.11658
-5.2520847 -41.089195 -647.16168
-62.197269 -5.4231405 -649.48712
-87.943825 -33.075401 -712.14172
-44.488693 111.43897 -679.71973
-49.855385 -62.165775 -647.30035
-52.903755 94.466827 -673.50781
-12.9789 -3.6197484 -644.80579
-70.184456 -69.324471 -674.63635
-75.566986 -49.0037 -682.02936
-80.279053 93.546486 -699.6358
-24.246046 -27.655201 -643.88007
-42.511238 114.4439 -681.71057
-93.801231 56.342896 -737.99127
-23.384697 -24.649725 -643.37628
-50.656513 -9.6655588 -647.75214
-89.284111 -27.88232 -714.92108
-20.589508 -13.599941 -643.18073
-12.812595 -36.969566 -645.21478
-30.482153 -0.2613467 -644.87402
-86.509499 6.9296074 -691.2832
-95.281258 -3.3606982 -726.24854
-36.206989 73.708305 -657.48315
-73.792732 -21.060337 -662.14294
-68.939407 106.4101 -694.5509
-85.276131 94.837479 -711.65198
-61.305023 48.344967 -668.42291
-76.337677 78.175621 -685.09473
-79.550514 -24.643764 -676.74316
-90.09053 -19.887466 -711.95459
-32.499844 117.39294 -681.93817
-57.103046 -50.790558 -653.46448
-75.975838 51.083599 -695.1109
-48.50872 -65.27388 -647.35681
-73.757103 -39.999004 -672.60614
-89.005219 -18.371023 -734.659
-90.75753 56.52615 -751.80682
-47.460781 0.33888671 -651.13495
-6.6813059 46.825138 -660.00568
-47.81776 -25.908186 -649.48456
-49.117786 76.108353 -661.64734
-93.045853 58.327538 -740.71759
-67.083138 -38.536808 -656.5528
-57.738544 87.594833 -673.29938
-53.282547 2.4940867 -650.79541
11.823163 22.120253 -651.80725
-89.861984 63.62804 -696.71564
-66.883492 93.02433 -683.78259
-8.594553 116.77213 -685.35425
-93.202652 46.303314 -740.66541
-92.193924 -11.606998 -715.37622
-70.335129 -70.84465 -708.16754
-56.489349 36.005745 -664.82556
-49.973686 37.849625 -669.2262
-51.49102 26.813728 -659.09229
-73.277061 49.974327 -693.63257
-92.869209 70.220657 -723.83765
-74.918861 62.922485 -679.95294
-4.922647 86.196976 -667.85437
-47.841183 -21.96723 -647.03119
-58.780968 -3.5657699 -649.2207
-26.865854 104.00941 -672.62012
-61.962299 19.680281 -646.026
20.054512 53.296631 -666.7276
-63.431953 50.364227 -668.30017
-4.5644841 35.63052 -650.78467
-89.940529 -21.864307 -712.44098
-94.022804 14.978891 -743.11353
-71.142532 -45.20409 -667.30505
-95.492767 57.27248 -730.6875
-77.024902 23.152971 -643.76868
-83.672279 -46.264919 -703.05774
11.547473 -5.1010127 -652.00189
-73.583542 -39.95026 -671.57074
-29.347467 -23.479406 -645.23083
-42.416122 -1.8288848 -649.31665
-80.175354 -56.401905 -713.49231
-72.304367 19.804243 -641.06403
-90.211952 33.23381 -752.06604
-90.872665 50.346981 -751.92303
-92.194611 24.164345 -745.69629
-58.527782 40.268387 -667.73975
-95.60675 58.080116 -729.32874
-87.672562 -17.178486 -691.0943
-55.271049 81.472572 -667.08447
-92.592178 0.81269193 -741.95233
-8.9328346 -27.797977 -644.9245
24.346518 -40.398331 -666.29907
-65.596252 -28.350372 -657.98199
-32.611637 59.681927 -660.07849
-86.261429 92.547874 -743.00574
-24.23476 27.049025 -649.09924
-11.911608 46.928867 -659.70276
-54.201946 -65.944221 -650.599
15.19456 -10.096395 -653.76099
-68.19397 -31.180378 -659.40363
20.740437 51.335831 -666.17291
-95.363625 55.17889 -732.10126
-66.68502 -65.584023 -662.68561
-5.4438219 43.874275 -658.091
26.965015 34.029865 -664.3454
-74.452026 -53.983353 -738.21442
-93.304268 6.3347826 -704.60345
-91.428062 76.262665 -725.6828
-93.746765 14.514655 -710.42841
-19.03335 119.03832 -684.36469
-81.115837 102.46646 -748.09076
-92.227844 -13.381478 -727.52997
-7.6915488 -59.123367 -652.39941
19.421099 73.652962 -673.84222
-80.950233 11.457144 -668.33746
-70.268219 11.847322 -639.44141
-26.271833 -24.428122 -644.30334
-4.5376153 -19.81518 -646.2699
-78.269753 29.177214 -650.56152
-44.268562 117.6305 -686.37756
-90.601425 43.741192 -714.41559
-79.315033 -58.309181 -710.87628
3.6610434 83.007538 -670.37463
-96.49041 11.863136 -727.05328
-87.20359 -14.30255 -689.69293
-93.370377 68.226921 -722.5083
-72.254768 -66.469772 -719.42596
-92.499443 70.020142 -718.94537
15.84919 -42.374256 -658.84747
-75.921371 -23.815434 -667.57404
-84.614441 13.434218 -654.94434
-95.935265 59.237152 -725.86383
-91.445625 77.356178 -730.01672
3.6398528 -37.203358 -649.3512
3.0166774 55.672958 -661.88605
-30.000374 -40.468925 -645.49414
23.757229 37.054314 -662.38037
-85.452858 73.488716 -692.78595
-60.734211 35.03096 -659.50818
-87.960808 75.560066 -699.52216
-79.847328 -28.573187 -748.27179
-83.787056 -18.293375 -745.49213
-74.708099 -2.6457934 -671.93152
-44.708855 20.453863 -656.20618
-79.748756 -57.297222 -709.03766
-89.395027 -13.170939 -693.69208
-92.876335 70.083443 -723.29443
-95.516121 54.00013 -713.02838
26.380987 47.359692 -667.90576
-83.277756 -30.631714 -740.78656
-55.32547 111.02005 -686.41821
-61.561066 81.674568 -672.96271
-63.030277 -25.38026 -652.43018
-3.7113931 76.091362 -663.66595
9.8789368 22.126503 -650.69379
-94.811081 -2.4596353 -713.20697
-70.733017 -69.932892 -692.26898
-66.789352 -8.2979822 -651.52179
-84.752556 -46.062817 -709.69775
-78.07695 99.548477 -700.35577
-91.362373 27.298565 -747.81488
-65.764122 2.7784371 -648.48059
-73.602364 -4.8221412 -660.41602
18.230009 -40.379627 -660.17371
-69.582581 -29.181187 -662.83508
10.260482 24.265244 -651.104
28.398705 44.22496 -668.29877
-18.928963 -14.525789 -643.31195
19.874229 -9.1036692 -656.58795
-13.809991 -51.836971 -647.62079
-76.87989 21.157087 -642.43097
-65.549316 24.874527 -647.69135
-16.1929 5.6177006 -643.78052
-75.421677 -34.64394 -683.40485
-58.492336 98.808083 -679.66718
-48.685818 52.064358 -674.38788
-93.978294 66.008972 -719.48254
-41.938656 42.813705 -666.81342
-4.1823001 77.047615 -663.89923
-71.128288 57.736149 -677.17102
-90.080315 22.189348 -754.7663
-38.464172 2.2519064 -649.91913
-90.996674 43.455856 -750.65509
-73.98867 95.420967 -692.26172
-73.593925 26.785286 -682.56189
-74.914803 51.042542 -694.33374
-70.827118 -53.183384 -670.98431
12.600614 55.651798 -664.44867
-59.141174 29.941257 -656.83801
-36.716053 84.024124 -662.25873
8.9038639 -25.18502 -650.51221
-31.627743 119.51598 -684.08612
-86.278778 95.076942 -717.61426
-6.6819377 106.67436 -678.30176
8.6071405 44.621128 -658.57898
-91.643295 61.687225 -700.78113
-92.013344 19.198112 -749.21912
-71.508102 -59.125858 -674.96234
-72.07428 29.676645 -685.84888
-72.948364 -47.977768 -673.42334
-76.172623 -48.856377 -740.90332
3.0711722 101.36012 -678.67853
-49.447388 1.5067323 -651.94684
-37.132851 92.066574 -666.83777
-49.933956 -69.058182 -649.94763
-4.0670209 66.092743 -659.58539
-25.177219 -30.525026 -644.52618
-89.633415 14.189549 -755.22681
-90.564819 -17.327267 -730.32489
-96.755417 3.767128 -722.73175
-86.90802 -34.181614 -700.97668
-50.46151 14.659895 -652.43555
-69.352509 -67.341599 -669.82538
7.4214749 76.982651 -669.64709
-38.700035 58.777985 -663.01544
-33.703476 78.732758 -659.36591
-75.029137 29.911667 -691.453
-40.452271 -69.39991 -647.84894
-88.000282 64.597267 -693.39789
-92.851006 0.27681297 -700.93158
-59.427357 92.700851 -677.37122
-83.119949 70.337471 -688.14954
-11.913193 -24.782696 -644.35724
-79.409363 -57.237087 -716.59943
14.794091 -22.25556 -653.52277
-92.740463 70.143051 -721.92261
-91.112686 66.658951 -701.17987
-81.619728 4.4402704 -659.4115
-56.661442 115.20052 -692.08105
-70.235939 -2.1739697 -650.20679
-28.525261 -4.1673937 -644.13782
-94.210129 52.401409 -736.82208
-60.567535 12.755137 -642.92975
-50.941975 -38.819588 -647.7757
-26.920828 113.25284 -678.44537
-56.608654 31.059374 -659.42767
-77.477577 89.444962 -693.30579
-96.806496 6.8307171 -720.85309
7.8377314 -2.0339463 -650.06323
-51.132122 39.099915 -670.13306
-21.530149 44.211067 -658.67859
-56.128635 13.662745 -644.94934
25.704752 42.127193 -665.39465
-14.974818 -49.71014 -646.91064
-6.5265927 8.4445181 -645.63501
-76.708466 9.5157824 -675.32977
5.2187133 24.240032 -648.8725
-31.78841 -52.421444 -645.12616
14.512219 79.95504 -673.78833
-91.820267 29.071491 -740.27521
-81.710358 20.052044 -694.62781
-85.847931 48.473221 -700.61859
-23.477993 120.24427 -684.84161
-63.551723 -74.450554 -666.57489
-76.097824 -4.6251268 -673.82947
10.83359 58.789845 -664.75806
-84.57431 93.572548 -749.75598
-56.097157 -30.733841 -647.35504
-89.125946 82.440796 -744.47186
-32.880466 35.485191 -657.61255
-91.805435 70.042191 -710.02057
-80.046638 56.311657 -690.737
-50.078152 89.372009 -669.02325
-59.35754 41.358433 -667.74048
-93.66217 -4.6193733 -707.76434
-80.220764 -11.396358 -678.74213
-93.600464 -3.708827 -705.81396
-26.00436 -56.546707 -645.26562
-66.989426 -60.396683 -663.30072
-33.168587 93.133591 -667.2442
-84.662483 100.16983 -719.93964
-85.560974 98.247055 -721.56036
7.6180387 77.080582 -669.7594
-48.522469 72.145348 -660.81451
-3.0993245 106.61392 -679.32593
-91.474785 65.510597 -746.22699
-36.963543 57.785065 -661.30164
-46.270054 -57.139881 -646.32123
-54.903881 107.87567 -683.17212
-91.650253 -14.332524 -729.04706
23.658016 40.345345 -663.24103
-49.99773 13.640575 -652.11572
-85.956963 85.579765 -754.12714
-58.328541 -11.483049 -648.67493
-92.881004 69.09346 -720.12244
-53.270813 24.739183 -656.55286
-13.291536 13.578627 -644.35828
-77.256287 -56.705826 -693.84058
-12.078767 -45.790344 -646.96326
-73.687065 -33.878178 -677.35834
-72.507881 -0.058598094 -653.05414
-59.005085 -20.490534 -648.81165
-28.645773 -17.372675 -643.90692
-81.29567 -39.580872 -738.85712
29.364157 6.8392787 -666.37012
-57.881985 6.5911217 -650.23541
-68.351883 -72.72197 -706.25732
15.474434 10.02378 -654.86444
-18.024321 -53.772018 -646.67383
-81.654236 57.283493 -690.97217
-45.045628 -53.0326 -646.93463
-91.569817 35.175217 -734.68256
-73.304993 -65.757835 -690.05676
-7.9723525 -38.789051 -646.25708
-73.555695 65.916405 -679.02094
-24.270405 119.3522 -683.94336
-96.693077 2.9156458 -726.52142
-8.8734789 -54.868275 -650.28827
-47.949078 -58.141136 -646.70496
21.614588 22.021217 -658.87756
-13.08011 91.601944 -668.6499
-53.229462 64.187103 -665.55548
11.822565 43.391727 -658.72791
7.3831301 63.917053 -664.9364
-8.684248 63.046074 -658.20642
-63.156265 -22.394325 -651.50403
-94.93058 16.910376 -725.73737
9.0818691 34.304855 -653.39459
-24.295046 45.386177 -659.13373
-25.940243 79.661911 -659.99634
-3.0468268 84.357948 -667.77045
26.967783 -18.258913 -661.96295
-90.509033 28.959312 -732.27618
-70.220779 50.98378 -689.28174
-12.018022 -11.535406 -644.95319
-28.774454 -21.239784 -644.29211
-89.300682 27.769579 -724.97418
-45.495411 -34.973232 -646.67566
3.1200869 56.84853 -661.99939
-84.756035 97.47113 -740.10449
-95.360939 15.948665 -724.03357
-46.196838 -1.724943 -650.06281
-62.206394 -14.295424 -650.45776
-0.66906857 -50.011044 -650.96448
-10.479344 -53.951984 -649.38196
-86.941299 48.634171 -702.56616
-73.437592 -65.778389 -691.09515
-81.830414 20.52054 -659.99377
-76.750031 20.186541 -641.78088
-95.473633 59.37701 -728.85834
-82.328133 103.47189 -739.42279
-75.664909 21.811352 -684.62854
-90.613121 -16.890074 -703.49695
-83.621513 12.482729 -659.67542
-19.686459 40.250065 -656.09137
-91.508919 1.164157 -697.16302
15.111699 83.957817 -675.68567
-88.705223 85.53672 -742.25012
-94.356209 65.172859 -720.42096
-68.482811 38.866058 -688.77917
-17.587332 56.370583 -659.26825
-11.376689 -61.939526 -652.71387
-88.100075 -29.946857 -708.13727
19.762814 -6.058301 -656.79828
-75.82634 -7.6731391 -669.99103
-58.610096 -4.251308 -649.24829
-92.263954 -12.455506 -718.05658
-89.902664 60.628204 -755.22003
-64.204079 -47.400654 -658.98248
2.3207579 38.707432 -653.92938
-89.930458 -19.84919 -704.44238
-40.183971 109.49888 -676.66516
-62.999363 32.048122 -656.05994
20.868967 -39.205509 -662.0907
-48.367252 56.206955 -672.50079
-61.496243 105.24603 -686.56189
-73.505424 42.585144 -668.87366
-71.789886 -2.9089329 -654.1181
-94.103325 10.083425 -742.76849
-31.480385 24.233856 -651.51312
-10.002116 -3.4988599 -645.62128
-36.695576 94.221741 -667.9577
-10.116142 -43.73531 -646.92285
21.945972 47.474739 -665.10858
-66.030205 -56.333359 -663.13623
-85.816109 -20.399061 -740.78113
-85.818504 93.051704 -711.60602
-90.127197 71.711494 -749.3269
-81.299675 70.418205 -686.08051
-63.754631 -29.285097 -656.30103
-25.809214 -26.421797 -644.37958
-36.813557 109.47861 -675.95111
-50.705025 -2.4976993 -649.98877
-54.534035 -32.756535 -646.36792
-81.14994 -18.547615 -677.86371
-79.765533 4.2433686 -651.66833
-60.946449 96.980911 -680.64075
-81.640015 -32.539062 -742.77051
-36.681713 13.387987 -649.41132
-63.166843 -68.452682 -659.06177
-38.373108 117.79703 -683.71039
-33.598389 98.084274 -669.72736
-86.199409 20.256319 -700.50256
11.778928 97.387787 -680.40186
-87.416321 -34.916416 -710.95319
-35.165737 18.312107 -650.48083
-81.238655 107.41483 -727.69043
-94.053352 14.652063 -711.60303
-5.7031827 74.279289 -661.78815
-83.323135 68.336197 -687.86786
-39.522861 92.144089 -667.22772
-91.970467 67.577461 -741.86774
15.724478 -23.082281 -654.11713
-83.888443 -43.648529 -726.82037
-82.17968 101.53911 -744.95648
-73.195374 102.49912 -696.19489
-73.770813 53.106667 -689.97711
-85.070618 -39.190392 -696.94543
-5.1300831 -11.757249 -646.88574
-84.195816 15.436893 -656.56183
-86.339493 28.611679 -709.39056
-31.168678 117.39915 -681.87939
-72.602852 -23.061918 -660.05341
-67.609993 -63.074745 -737.20801
-84.420494 -33.602375 -736.64612
-6.8577433 55.080158 -660.49158
23.91099 -23.283413 -660.02124
-91.623466 68.569214 -743.22925
-52.882195 90.606369 -671.32391
-60.285412 109.30588 -688.90051
-58.54488 30.169046 -657.41266
-88.038193 34.69466 -708.05084
-82.363388 -51.078701 -706.01025
-80.075699 108.46256 -735.91864
-77.241959 21.915815 -688.99951
-90.941704 77.357567 -723.53644
-33.228416 76.750038 -658.3905
-67.013748 -4.0518594 -650.45502
0.34877646 111.80094 -684.26892
-54.828426 82.58831 -667.45978
16.675789 68.90229 -670.41284
-63.535912 32.086697 -655.72858
-83.039085 -30.39208 -741.37952
-5.4105663 109.92044 -680.8996
5.9301467 -12.827262 -649.10345
-83.649193 9.2540884 -647.05176
27.629114 3.8603184 -664.39404
-0.54775721 46.940498 -659.77368
-91.998177 60.529263 -745.41168
-82.07148 -6.1297369 -683.72034
-58.922318 -43.508614 -652.95312
-7.6278577 101.7833 -675.0968
-79.632996 -57.357258 -707.83582
-52.117287 -52.711319 -650.07977
-74.449348 29.711813 -672.96552
-70.574074 102.47627 -692.97534
-47.026318 -55.969212 -646.78601
-57.353558 7.7044268 -648.85266
-76.155991 58.074135 -682.83911
-75.09079 -29.758554 -670.79901
-74.933784 -32.542332 -681.57819
-8.5560226 71.327583 -658.76929
-84.213646 4.8830662 -687.3678
-90.678963 40.061378 -720.67029
-35.625484 -31.072624 -647.82288
-15.18255 70.276833 -656.55878
28.610388 12.06036 -665.96539
-85.521149 -13.037984 -687.0528
-70.691048 -8.0755167 -654.90015
-86.85952 50.712452 -703.23285
-36.747711 113.53446 -678.99829
8.8221865 7.1186595 -650.40979
-95.179222 -3.2431595 -720.23535
-94.200211 -6.3333244 -719.59955
-78.94915 3.6791048 -681.8653
-75.896973 37.575119 -663.03857
-6.1970444 -34.809437 -645.98041
-2.9270287 -58.019676 -653.87915
-35.165207 1.1488146 -647.67737
6.4009995 44.74963 -658.28229
23.436525 -10.17249 -659.03278
15.333608 59.757519 -666.80292
-64.050888 45.438637 -664.66553
-88.231422 -31.586792 -725.43115
-90.910309 17.274862 -752.59015
-96.725899 10.878668 -723.12323
-73.648735 -3.7309225 -661.47742
-85.956154 88.740585 -750.54724
-68.800819 110.53098 -699.02313
-9.1920118 -51.853508 -649.01141
9.4188776 87.206741 -674.65668
-83.059601 96.682816 -750.75385
16.267048 36.463108 -657.43085
-0.64287484 -10.780724 -647.53503
-16.424225 50.218437 -659.04352
-90.107346 45.849384 -710.42578
-36.403347 110.42168 -676.53705
-35.190384 15.288466 -649.17163
-80.559113 103.5918 -748.12189
-48.512733 57.395321 -671.57843
-93.667801 7.0959449 -743.28583
-65.921394 113.58204 -699.29895
-86.461166 75.74894 -696.11987
-27.571741 85.989716 -664.26135
-68.313599 52.802979 -671.08636
-78.496056 61.287544 -683.59552
-68.683037 73.992355 -675.45642
-3.454612 70.079086 -661.06104
-74.898079 -1.55409 -670.48651
-84.347153 -22.207821 -685.94281
-78.565086 29.109583 -694.5047
-73.595116 -31.718321 -673.10883
20.663666 13.25049 -658.90808
-88.659042 64.658867 -694.47968
-66.294106 82.054848 -677.94415
11.517066 -39.063732 -654.28174
-49.58522 95.712936 -672.25323
-73.242332 3.9865623 -640.32526
15.341565 -37.121399 -656.63531
-90.201973 48.56778 -755.08929
-51.921413 -9.4210491 -647.93695
-56.116993 -59.703442 -650.79309
-37.017838 -60.241287 -644.62775
9.9521313 -4.8414407 -651.14691
-39.647415 83.133072 -661.99017
-64.137512 81.917931 -675.65137
26.012583 -19.286411 -661.22076
-43.764809 45.013424 -669.35864
19.219925 15.110059 -657.53638
-80.510956 -12.261395 -678.90253
-83.270279 8.6489325 -663.63055
-54.651432 -32.710648 -646.38348
-77.044968 66.231743 -681.11804
-86.833321 64.718132 -691.70099
-96.369354 11.135722 -732.7182
-79.753029 22.686571 -663.62506
25.087976 -16.053324 -660.24152
-29.862436 -26.222179 -647.04755
-75.363091 -54.600674 -684.89819
-49.13039 85.498383 -665.7832
-68.838989 -39.100937 -658.44427
-88.563316 88.408615 -730.46936
-61.484432 7.741993 -644.2016
2.3470867 101.56902 -678.48907
-0.66575032 89.347046 -671.38666
-60.901833 68.684204 -667.94135
-76.385612 -29.695515 -676.19409
-96.454613 4.9983807 -731.10211
-37.260235 99.277229 -670.54065
-48.852985 26.977549 -659.93384
-51.706104 -24.591898 -649.66876
-96.452271 50.263691 -719.19696
-90.338036 54.872135 -704.57776
-67.952385 -12.094048 -653.69965
-30.087242 66.717857 -657.50903
-56.062374 27.092613 -656.43738
-82.661552 -38.203682 -689.37885
-93.080734 7.488358 -704.64258
-26.477299 66.694099 -656.44684
-76.562416 41.303703 -694.06299
-0.798944 -9.7346849 -647.52917
-83.961525 13.532847 -658.20636
-64.837196 -30.259083 -656.3501
-56.329689 86.641197 -671.54486
-94.443169 8.6772575 -709.08618
-39.155014 -25.981737 -649.73328
-87.476814 -31.881653 -702.5741
6.6508622 -15.81549 -649.27802
-51.568825 -23.606218 -648.16589
-61.989597 19.902977 -646.19238
-79.883453 22.269951 -644.90289
15.469831 40.580868 -658.75623
-54.575432 -58.831379 -649.8786
-86.378632 -39.586552 -722.6875
4.1158772 97.542267 -677.27148
-77.562737 112.20726 -721.80139
-85.398674 27.649557 -705.18085
26.533195 25.170761 -663.16156
-75.925659 48.314007 -695.10492
-90.94268 -13.080219 -733.16211
-94.506844 -2.2746403 -710.84753
-72.607254 -48.983406 -673.04352
-89.647652 62.808434 -756.349
-11.317326 29.770103 -647.56201
-85.800026 68.590439 -690.97015
-90.903679 3.0979712 -747.45563
18.729498 1.1503581 -656.94586
5.8798385 68.038063 -665.49432
-48.496925 35.132706 -666.44617
-80.916428 10.922691 -686.00494
-37.750366 68.938629 -659.35699
2.9918616 -43.973991 -650.65997
-38.539734 -18.931736 -646.53204
-67.129585 55.738514 -670.82446
-36.795231 113.65089 -679.11005
-57.179028 -42.517231 -651.80444
-82.406113 45.548817 -696.56
-0.35847005 96.650406 -674.91028
-93.462845 45.471577 -739.03271
-5.841454 -24.624264 -645.60675
-85.854538 -22.145283 -688.48175
-32.778301 -31.157907 -647.37036
-76.106972 -55.783543 -731.67725
-92.824326 68.207771 -715.25696
-59.351028 -60.65802 -653.36273
-89.940529 60.757759 -697.29791
-47.086666 103.77817 -675.44745
-92.536659 72.542908 -732.21979
-50.7159 -2.4373043 -650.01367
-18.429115 17.853668 -644.70966
2.5918777 94.457535 -675.17291
-94.860466 49.395775 -734.7655
-26.410252 112.4259 -677.92389
-33.571365 93.239853 -667.29596
-49.236092 -66.064903 -647.90363
-87.578041 -27.381496 -732.92188
8.0818968 101.60133 -681.07837
10.669748 -20.988474 -651.17181
-73.118156 27.834621 -685.70538
-9.2165403 38.039928 -652.78418
-36.727882 74.042976 -657.77472
-83.383751 -50.020527 -710.6131
-22.468466 83.726547 -663.38086
-8.6936064 -34.622551 -645.43658
-42.970856 -2.693208 -649.06372
-96.84594 4.0442753 -726.20441
-82.921928 5.6942372 -662.42963
-75.957085 21.794889 -675.97314
-12.519865 -5.4381833 -645.02533
-74.615265 38.749432 -668.16602
-48.290596 -9.5228386 -647.47266
-83.441132 -38.202667 -690.42712
-84.768028 -38.103981 -693.74011
-9.3090696 116.02618 -684.52161
-91.167908 -17.361832 -717.69751
-76.049469 2.783 -677.05566
-22.604868 122.42165 -687.0296
-67.308228 40.908379 -682.59351
24.171194 -8.0149879 -659.80725
-66.911705 -26.056583 -655.61182
-11.178116 97.842453 -672.11536
-75.715469 55.184803 -686.32837
-1.1686279 -26.868351 -646.54413
-76.644897 14.881779 -677.90314
-36.43631 -10.833932 -645.13715
16.352457 79.165588 -674.39185
-36.357857 18.371613 -651.21179
-2.3464894 19.473822 -646.0719
-59.86142 75.655121 -667.85345
-22.489067 -59.535988 -646.4837
-42.988926 -31.924206 -646.88531
-76.288116 -49.729187 -739.60883
-68.757843 -48.010132 -664.76373
-1.8402601 102.71738 -677.47418
-5.5391717 6.4600806 -646.06854
-79.079681 80.492012 -689.50165
-96.208153 12.990599 -728.48279
20.118937 -36.05584 -660.25891
-88.810539 43.687645 -705.33154
-86.986481 92.321304 -716.56873
23.380102 -3.9515922 -659.63843
11.912836 27.51881 -652.58881
-92.701515 19.888397 -716.91077
-60.495945 113.36251 -693.34833
-89.829689 7.359674 -752.17853
-89.90255 43.903809 -710.58539
-85.035271 96.189049 -712.61267
-62.360733 -71.54538 -660.8717
-67.869354 30.183292 -651.23376
-61.686485 52.704624 -669.57611
-12.799986 -57.71909 -650.17804
1.9458596 34.748241 -651.28253
-55.782253 43.355431 -671.87762
-90.275818 5.3801284 -696.43805
-59.317581 80.748161 -670.17181
-91.049477 -0.59987843 -695.72455
-41.03294 38.87978 -664.53699
